ply
format ascii 1.0
element vertex 1230
property float x
property float y
property float z
property uchar red
property uchar green
property uchar blue
end_header
-0.009939 -0.000625 -0.515048 22 38 53
-0.010766 -0.000624 -0.514201 21 39 61
-0.011609 -0.000624 -0.514201 22 42 66
-0.012458 -0.000624 -0.514483 21 42 61
-0.099682 -0.000560 -0.461567 16 27 31
-0.100438 -0.000560 -0.461567 15 28 34
-0.101195 -0.000560 -0.461567 15 28 34
-0.101951 -0.000560 -0.461567 16 29 35
-0.102707 -0.000560 -0.461567 17 30 36
-0.103464 -0.000560 -0.461567 18 31 39
-0.110763 -0.000562 -0.463620 16 35 41
-0.111522 -0.000562 -0.463620 16 35 41
-0.113435 -0.000564 -0.465230 19 37 47
-0.113298 -0.000560 -0.461567 22 40 50
-0.114054 -0.000560 -0.461567 23 41 53
-0.114811 -0.000560 -0.461567 20 38 50
-0.115567 -0.000560 -0.461567 15 33 47
-0.116324 -0.000560 -0.461567 12 30 44
-0.117080 -0.000560 -0.461567 13 31 43
-0.117836 -0.000560 -0.461567 14 32 44
-0.118593 -0.000560 -0.461567 17 35 45
-0.119349 -0.000560 -0.461567 17 33 46
-0.120106 -0.000560 -0.461567 17 33 46
-0.120862 -0.000560 -0.461567 17 33 48
-3.511822 -0.014217 -11.723789 39 65 80
-2.568026 -0.010339 -8.526392 37 64 81
-2.582000 -0.010339 -8.526392 37 64 81
-2.595973 -0.010339 -8.526392 40 67 84
-2.683123 -0.010629 -8.765450 40 69 85
-2.722937 -0.010729 -8.848143 42 71 89
-2.844788 -0.011150 -9.195128 42 73 91
-2.859858 -0.011150 -9.195128 0 0 0
-2.992272 -0.011605 -9.570440 0 0 0
-4.726020 -0.017771 -14.654737 0 0 0
-3.800030 -0.014217 -11.723789 0 0 0
-3.819244 -0.014217 -11.723789 0 0 0
-3.744837 -0.013870 -11.437843 0 0 0
-3.421328 -0.012362 -10.194599 0 0 0
-3.951259 -0.011847 -9.769824 0 0 0
-4.009031 -0.011972 -9.872664 0 0 0
-14.882159 -0.039218 -32.341488 0 0 0
-7.467581 -0.019609 -16.170744 0 0 0
-5.366134 -0.014041 -11.579051 0 0 0
-4.741239 -0.012362 -10.194599 0 0 0
-4.377311 -0.011373 -9.379031 0 0 0
-4.392682 -0.011373 -9.379031 0 0 0
-4.408053 -0.011373 -9.379031 0 0 0
0.182256 -0.002017 -0.707318 19 29 31
0.180825 -0.002014 -0.706252 19 29 31
0.179667 -0.002014 -0.706252 21 32 36
0.178107 -0.002009 -0.704661 23 34 38
0.176820 -0.002008 -0.704131 24 35 41
0.175666 -0.002008 -0.704131 23 34 40
0.174512 -0.002008 -0.704131 20 33 39
0.173358 -0.002008 -0.704131 19 32 38
0.495838 -0.007619 -2.672089 1 101 160
0.470033 -0.007287 -2.555594 2 112 171
0.447552 -0.007001 -2.455244 4 123 181
0.430020 -0.006788 -2.380465 4 129 187
0.406515 -0.006476 -2.270952 1 134 193
0.390501 -0.006278 -2.201651 2 141 200
0.385085 -0.006249 -2.191362 3 146 206
0.381494 -0.006249 -2.191362 3 149 208
0.379677 -0.006278 -2.201651 1 151 210
0.036494 -0.001661 -0.582549 0 44 75
0.035430 -0.001656 -0.580745 0 50 84
0.034435 -0.001654 -0.580027 0 61 99
0.033423 -0.001651 -0.578953 9 78 119
0.032534 -0.001654 -0.580027 15 125 176
0.021429 -0.001939 -0.680133 124 153 167
0.020125 -0.001921 -0.673781 127 150 156
0.018939 -0.001913 -0.670889 137 152 155
0.017776 -0.001906 -0.668498 48 58 60
0.016668 -0.001905 -0.668022 27 37 39
0.004447 -0.001481 -0.519326 190 215 246
0.003576 -0.001473 -0.516466 192 221 251
0.002724 -0.001469 -0.515331 189 223 251
0.001879 -0.001469 -0.515331 187 222 252
0.001035 -0.001470 -0.515615 187 222 254
0.000191 -0.001478 -0.518465 186 221 253
-0.000659 -0.001478 -0.518465 187 222 252
-0.001522 -0.001492 -0.523092 186 221 251
-0.002383 -0.001494 -0.523968 184 221 248
-0.003236 -0.001492 -0.523092 181 218 244
-0.004094 -0.001492 -0.523092 176 210 235
-0.004945 -0.001490 -0.522509 169 200 220
-0.005792 -0.001487 -0.521637 153 179 194
-0.006614 -0.001480 -0.519039 124 144 155
-0.007448 -0.001477 -0.517892 102 116 127
-0.008269 -0.001472 -0.516182 73 83 93
-0.009100 -0.001469 -0.515331 28 40 52
-0.009923 -0.001466 -0.514201 23 39 54
-0.010766 -0.001466 -0.514201 22 40 62
-0.011609 -0.001466 -0.514201 21 43 66
-0.012451 -0.001466 -0.514201 21 42 61
-0.120661 -0.002023 -0.709458 20 37 47
-0.122101 -0.002028 -0.711071 20 34 45
-0.100438 -0.001316 -0.461567 15 28 34
-0.101195 -0.001316 -0.461567 15 29 32
-0.101951 -0.001316 -0.461567 15 28 34
-0.102707 -0.001316 -0.461567 16 29 35
-0.103464 -0.001316 -0.461567 17 30 38
-0.114197 -0.001327 -0.465230 24 42 54
-0.114054 -0.001316 -0.461567 22 40 54
-0.114811 -0.001316 -0.461567 18 36 50
-0.115567 -0.001316 -0.461567 14 32 46
-0.116324 -0.001316 -0.461567 13 31 45
-0.117080 -0.001316 -0.461567 14 32 44
-0.117836 -0.001316 -0.461567 15 33 45
-0.118593 -0.001316 -0.461567 16 34 44
-0.119349 -0.001316 -0.461567 16 32 45
-0.120106 -0.001316 -0.461567 16 32 45
-3.305244 -0.031464 -11.034155 37 63 78
-2.796860 -0.026480 -9.286170 38 64 79
-2.582000 -0.024313 -8.526392 36 63 80
-2.595973 -0.024313 -8.526392 39 66 83
-2.658279 -0.024763 -8.684288 40 67 84
-2.775301 -0.025716 -9.018299 40 67 86
-2.844788 -0.026220 -9.195128 41 70 88
-2.946520 -0.027014 -9.473769 0 0 0
-4.750038 -0.041788 -14.654737 0 0 0
-11.066221 -0.068575 -24.048798 0 0 0
-7.467581 -0.046111 -16.170744 0 0 0
-5.501985 -0.033854 -11.872191 0 0 0
-4.741239 -0.029070 -10.194599 0 0 0
-4.377311 -0.026744 -9.379031 0 0 0
-4.264740 -0.025965 -9.105856 0 0 0
-4.279663 -0.025965 -9.105856 0 0 0
0.182256 -0.003176 -0.707318 18 28 30
0.180825 -0.003171 -0.706252 19 29 31
0.179262 -0.003164 -0.704661 20 31 35
0.178107 -0.003164 -0.704661 22 33 37
0.176952 -0.003164 -0.704661 23 34 40
0.175666 -0.003162 -0.704131 23 34 40
0.174512 -0.003162 -0.704131 20 33 39
0.495838 -0.011999 -2.672089 3 99 157
0.462472 -0.011291 -2.514486 3 109 167
0.438372 -0.010799 -2.404880 5 120 177
0.418340 -0.010399 -2.315810 4 127 184
0.402616 -0.010100 -2.249168 2 132 190
0.390501 -0.009886 -2.201651 3 139 197
0.385085 -0.009840 -2.191362 4 144 203
0.381494 -0.009840 -2.191362 2 148 207
0.036654 -0.002627 -0.585092 19 108 152
0.035540 -0.002616 -0.582549 23 118 164
0.034542 -0.002613 -0.581826 23 125 173
0.033526 -0.002608 -0.580745 14 120 170
0.019020 -0.003026 -0.673781 131 160 168
0.017839 -0.003013 -0.670889 41 58 65
0.003576 -0.002319 -0.516466 184 218 246
0.002724 -0.002314 -0.515331 184 221 248
0.001879 -0.002314 -0.515331 186 226 252
0.001035 -0.002315 -0.515615 185 222 251
0.000191 -0.002328 -0.518465 186 223 252
-0.000659 -0.002328 -0.518465 188 225 254
-0.001524 -0.002353 -0.523968 189 226 253
-0.002383 -0.002353 -0.523968 187 224 251
-0.003235 -0.002348 -0.522800 184 221 247
-0.004091 -0.002348 -0.522800 175 209 234
-0.004948 -0.002348 -0.522800 166 197 217
-0.005799 -0.002345 -0.522218 154 180 195
-0.006614 -0.002331 -0.519039 124 143 157
-0.007444 -0.002324 -0.517607 101 115 126
-0.008260 -0.002315 -0.515615 71 83 95
-0.009090 -0.002311 -0.514766 28 42 55
-0.009923 -0.002309 -0.514201 23 39 55
-0.010766 -0.002309 -0.514201 20 40 64
-0.011596 -0.002306 -0.513638 20 42 65
-0.012451 -0.002309 -0.514201 21 42 61
-0.119498 -0.003186 -0.709458 18 35 45
-0.120479 -0.003181 -0.708386 20 37 47
-0.121732 -0.003183 -0.708921 21 35 46
-0.122987 -0.003186 -0.709458 17 34 44
-0.100438 -0.002073 -0.461567 16 27 31
-0.101195 -0.002073 -0.461567 14 28 31
-0.101951 -0.002073 -0.461567 15 28 34
-0.102707 -0.002073 -0.461567 15 28 34
-0.103464 -0.002073 -0.461567 16 29 37
-0.114054 -0.002073 -0.461567 23 41 55
-0.114811 -0.002073 -0.461567 18 36 50
-0.115567 -0.002073 -0.461567 14 32 46
-0.116324 -0.002073 -0.461567 12 30 44
-0.117080 -0.002073 -0.461567 14 32 44
-0.117836 -0.002073 -0.461567 15 33 45
-0.118593 -0.002073 -0.461567 14 32 42
-0.119349 -0.002073 -0.461567 14 30 43
-0.120106 -0.002073 -0.461567 14 30 43
-3.070466 -0.045778 -10.194599 35 61 76
-2.654392 -0.039360 -8.765450 36 62 79
-2.619790 -0.038638 -8.604616 37 64 81
-2.658279 -0.038996 -8.684288 39 66 83
-2.829719 -0.041290 -9.195128 39 66 85
-2.872955 -0.041698 -9.286170 40 67 86
-22.633974 -0.221660 -49.363323 0 0 0
-11.066221 -0.107988 -24.048798 0 0 0
-7.467581 -0.072613 -16.170744 0 0 0
-5.795424 -0.056154 -12.505375 0 0 0
-5.013723 -0.048409 -10.780496 0 0 0
-4.377311 -0.042115 -9.379031 0 0 0
-4.223732 -0.040496 -9.018299 0 0 0
-4.238513 -0.040496 -9.018299 0 0 0
-4.253292 -0.040496 -9.018299 0 0 0
0.180825 -0.004329 -0.706252 18 28 30
0.179397 -0.004322 -0.705190 18 29 31
0.178241 -0.004322 -0.705190 21 32 34
0.177085 -0.004322 -0.705190 23 34 38
0.175930 -0.004322 -0.705190 23 34 38
0.174774 -0.004322 -0.705190 20 34 37
0.470033 -0.015664 -2.555594 2 105 163
0.433921 -0.014591 -2.380465 4 115 171
0.410237 -0.013919 -2.270952 3 123 176
0.397845 -0.013622 -2.222519 0 129 184
0.388677 -0.013431 -2.191362 0 135 190
0.384188 -0.013400 -2.186255 2 141 198
0.380605 -0.013400 -2.186255 3 148 205
0.034736 -0.003586 -0.585092 8 129 186
0.003576 -0.003166 -0.516466 178 213 241
0.002722 -0.003157 -0.515048 177 217 242
0.001878 -0.003157 -0.515048 185 227 251
0.001034 -0.003159 -0.515331 187 227 253
-0.002383 -0.003212 -0.523968 186 223 250
-0.003236 -0.003206 -0.523092 183 220 246
-0.004094 -0.003206 -0.523092 174 210 234
-0.004959 -0.003212 -0.523968 165 197 218
-0.005818 -0.003212 -0.523968 153 180 197
-0.006647 -0.003197 -0.521637 124 143 157
-0.007452 -0.003176 -0.518179 101 115 128
-0.008269 -0.003164 -0.516182 71 83 95
-0.009090 -0.003155 -0.514766 27 40 56
-0.009923 -0.003152 -0.514201 23 38 57
-0.010754 -0.003148 -0.513638 19 39 63
-0.011564 -0.003140 -0.512235 19 41 65
-0.012404 -0.003140 -0.512235 21 42 61
-0.013294 -0.003152 -0.514201 9 28 43
-0.077064 -0.004449 -0.725931 21 43 57
-0.078193 -0.004446 -0.725370 19 41 54
-0.079321 -0.004443 -0.724809 17 39 52
-0.080508 -0.004443 -0.724809 16 36 47
-0.118605 -0.004358 -0.711071 16 33 41
-0.119498 -0.004348 -0.709458 18 35 45
-0.120479 -0.004342 -0.708386 19 36 46
-0.121640 -0.004342 -0.708386 21 35 46
-0.122894 -0.004345 -0.708921 16 33 43
-0.101195 -0.002829 -0.461567 14 28 31
-0.101951 -0.002829 -0.461567 14 27 33
-0.102707 -0.002829 -0.461567 15 28 34
-0.103464 -0.002829 -0.461567 15 28 36
-0.104220 -0.002829 -0.461567 16 29 37
-0.114054 -0.002829 -0.461567 22 40 54
-0.114811 -0.002829 -0.461567 17 35 49
-0.115567 -0.002829 -0.461567 13 31 45
-0.116324 -0.002829 -0.461567 12 30 44
-0.117080 -0.002829 -0.461567 13 31 43
-0.117836 -0.002829 -0.461567 13 31 43
-0.118593 -0.002829 -0.461567 13 31 41
-0.119349 -0.002829 -0.461567 13 29 42
-0.120106 -0.002829 -0.461567 13 29 42
-3.323328 -0.067631 -11.034155 34 57 73
-2.840200 -0.057487 -9.379031 33 59 76
-2.827298 -0.056917 -9.286170 36 62 79
-2.842517 -0.056917 -9.286170 38 64 81
-2.886313 -0.057487 -9.379031 40 65 85
-2.930994 -0.058067 -9.473769 40 65 85
-23.891417 -0.319370 -52.105728 0 0 0
-11.066221 -0.147401 -24.048798 0 0 0
-8.329226 -0.110551 -18.036598 0 0 0
-6.392012 -0.084539 -13.792693 0 0 0
-5.385110 -0.070971 -11.579051 0 0 0
-4.559699 -0.059882 -9.769824 0 0 0
-4.144039 -0.054233 -8.848143 0 0 0
-4.158540 -0.054233 -8.848143 0 0 0
-4.173041 -0.054233 -8.848143 0 0 0
0.181097 -0.005495 -0.707318 17 27 29
0.179667 -0.005486 -0.706252 17 28 30
0.178375 -0.005482 -0.705721 20 31 33
0.177352 -0.005486 -0.706252 23 34 38
0.176195 -0.005486 -0.706252 23 34 38
0.447552 -0.019073 -2.455244 4 111 165
0.411233 -0.017684 -2.276464 3 118 172
0.397845 -0.017265 -2.222519 1 125 177
0.388677 -0.017023 -2.191362 1 132 186
0.385085 -0.017023 -2.191362 3 138 194
0.381494 -0.017023 -2.191362 3 144 200
0.003592 -0.004030 -0.518752 185 220 248
0.002722 -0.004001 -0.515048 182 222 247
0.001878 -0.004001 -0.515048 186 228 250
0.001036 -0.004008 -0.515898 187 227 252
-0.003242 -0.004070 -0.523968 183 220 246
-0.004094 -0.004063 -0.523092 174 210 234
-0.007477 -0.004039 -0.519902 97 113 126
-0.008288 -0.004019 -0.517321 67 81 94
-0.009090 -0.003999 -0.514766 25 38 54
-0.009912 -0.003990 -0.513638 21 38 58
-0.010678 -0.003962 -0.510007 20 40 64
-0.011378 -0.003915 -0.503978 21 43 66
-0.012204 -0.003915 -0.503978 20 41 60
-0.013178 -0.003960 -0.509730 9 28 43
-0.077064 -0.005639 -0.725931 19 41 55
-0.078133 -0.005630 -0.724809 17 39 52
-0.079321 -0.005630 -0.724809 16 38 51
-0.080446 -0.005626 -0.724250 15 35 46
-0.081633 -0.005626 -0.724250 14 32 44
-0.118336 -0.005511 -0.709458 16 33 41
-0.119408 -0.005507 -0.708921 18 35 45
-0.120479 -0.005503 -0.708386 19 36 46
-0.121640 -0.005503 -0.708386 21 35 46
-0.122801 -0.005503 -0.708386 19 33 44
-0.101951 -0.003586 -0.461567 15 28 34
-0.102707 -0.003586 -0.461567 15 28 34
-0.103464 -0.003586 -0.461567 15 28 36
-0.104220 -0.003586 -0.461567 16 29 37
-0.104977 -0.003586 -0.461567 17 30 38
-0.114054 -0.003586 -0.461567 20 38 52
-0.114811 -0.003586 -0.461567 16 34 48
-0.115567 -0.003586 -0.461567 13 31 45
-0.116324 -0.003586 -0.461567 12 30 44
-0.117080 -0.003586 -0.461567 12 30 42
-0.117836 -0.003586 -0.461567 12 30 42
-0.118593 -0.003586 -0.461567 12 30 40
-0.119349 -0.003586 -0.461567 12 30 40
-0.120106 -0.003586 -0.461567 13 31 41
-3.264597 -0.083744 -10.780496 33 59 76
-2.855571 -0.072858 -9.379031 34 60 77
-2.870942 -0.072858 -9.379031 36 62 79
-2.886313 -0.072858 -9.379031 40 63 81
-32.247917 -0.662343 -85.263924 0 0 0
-29.688683 -0.607147 -78.158592 0 0 0
-29.816774 -0.607147 -78.158592 0 0 0
-14.882159 -0.251233 -32.341488 0 0 0
-9.624883 -0.161906 -20.842293 0 0 0
-7.494083 -0.125617 -16.170744 0 0 0
-5.664856 -0.094620 -12.180560 0 0 0
-4.810231 -0.080063 -10.306628 0 0 0
-4.306551 -0.071429 -9.195128 0 0 0
-4.321620 -0.071429 -9.195128 0 0 0
-4.336690 -0.071429 -9.195128 0 0 0
0.179938 -0.006654 -0.707318 18 28 30
0.178644 -0.006649 -0.706785 20 30 32
0.177620 -0.006654 -0.707318 23 34 36
0.176460 -0.006654 -0.707318 24 35 37
0.421462 -0.021947 -2.333092 3 113 164
0.405533 -0.021311 -2.265466 2 119 172
0.389587 -0.020662 -2.196495 0 126 177
0.385987 -0.020662 -2.196495 3 132 187
0.382387 -0.020662 -2.196495 3 138 193
0.003592 -0.004880 -0.518752 196 230 255
0.002728 -0.004856 -0.516182 197 233 255
0.001882 -0.004856 -0.516182 189 231 253
0.001036 -0.004856 -0.516182 190 231 253
-0.004060 -0.004880 -0.518752 175 211 235
-0.008306 -0.004877 -0.518465 64 78 89
-0.009090 -0.004842 -0.514766 23 39 55
-0.009885 -0.004819 -0.512235 21 38 58
-0.010529 -0.004731 -0.502897 21 41 65
-0.011323 -0.004718 -0.501552 19 41 64
-0.012145 -0.004718 -0.501552 18 39 58
-0.012967 -0.004718 -0.501552 11 30 47
-0.077064 -0.006829 -0.725931 20 39 53
-0.078133 -0.006818 -0.724809 18 37 51
-0.079259 -0.006813 -0.724250 17 36 50
-0.080446 -0.006813 -0.724250 15 33 45
-0.081633 -0.006813 -0.724250 13 31 43
-0.082756 -0.006808 -0.723691 12 29 39
-0.084007 -0.006813 -0.724250 9 26 34
-0.117886 -0.006715 -0.713777 15 32 40
-0.118605 -0.006689 -0.711071 17 34 42
-0.119408 -0.006669 -0.708921 18 35 45
-0.120479 -0.006664 -0.708386 18 35 45
-0.121640 -0.006664 -0.708386 21 35 46
-0.122801 -0.006664 -0.708386 19 33 44
-0.124055 -0.006669 -0.708921 16 33 43
-0.105266 -0.004483 -0.476577 17 28 34
-0.105672 -0.004467 -0.474888 17 28 34
-0.103464 -0.004342 -0.461567 18 29 35
-0.104220 -0.004342 -0.461567 18 29 35
-0.104977 -0.004342 -0.461567 18 28 37
-0.114054 -0.004342 -0.461567 18 36 50
-0.114811 -0.004342 -0.461567 14 32 46
-0.115567 -0.004342 -0.461567 13 31 45
-0.116324 -0.004342 -0.461567 13 31 45
-0.117080 -0.004342 -0.461567 11 29 41
-0.117836 -0.004342 -0.461567 12 30 42
-0.118593 -0.004342 -0.461567 13 31 41
-0.119349 -0.004342 -0.461567 13 31 41
-0.120106 -0.004342 -0.461567 14 32 42
-0.120862 -0.004342 -0.461567 17 33 46
-0.121619 -0.004342 -0.461567 18 34 47
-0.122375 -0.004342 -0.461567 17 33 46
-0.123132 -0.004342 -0.461567 18 34 47
-0.123888 -0.004342 -0.461567 18 34 47
-3.660988 -0.113114 -12.024399 35 58 76
-2.870942 -0.088229 -9.379031 37 60 78
-3.137297 -0.095901 -10.194599 39 62 80
-29.688683 -0.735240 -78.158592 0 0 0
-29.816774 -0.735240 -78.158592 0 0 0
-14.437325 -0.294096 -31.263437 0 0 0
-9.248018 -0.187721 -19.955385 0 0 0
-6.414617 -0.129748 -13.792693 0 0 0
-5.089896 -0.102592 -10.905850 0 0 0
-4.673066 -0.093860 -9.977693 0 0 0
-4.689418 -0.093860 -9.977693 0 0 0
-4.705770 -0.093860 -9.977693 0 0 0
0.140053 -0.006732 -0.609424 15 25 26
0.417639 -0.025771 -2.333092 1 113 163
0.401820 -0.025024 -2.265466 0 119 171
0.400040 -0.025146 -2.276464 1 125 177
0.003592 -0.005730 -0.518752 186 222 246
0.002742 -0.005730 -0.518752 192 230 253
0.001892 -0.005730 -0.518752 190 231 253
-0.003210 -0.005730 -0.518752 181 221 246
-0.004049 -0.005714 -0.517321 176 212 238
-0.004896 -0.005714 -0.517321 165 195 219
-0.008288 -0.005714 -0.517321 62 79 89
-0.009070 -0.005674 -0.513638 23 39 55
-0.009705 -0.005555 -0.502897 19 37 57
-0.010501 -0.005540 -0.501552 21 42 63
-0.011311 -0.005534 -0.501017 20 42 63
-0.012132 -0.005534 -0.501017 17 38 59
-0.012960 -0.005537 -0.501284 10 29 46
-0.077423 -0.008056 -0.729318 19 38 52
-0.078133 -0.008006 -0.724809 17 36 50
-0.079259 -0.008000 -0.724250 16 35 49
-0.080384 -0.007994 -0.723691 14 32 44
-0.081570 -0.007994 -0.723691 12 30 40
-0.082756 -0.007994 -0.723691 11 28 38
-0.083942 -0.007994 -0.723691 9 26 34
-0.085194 -0.008000 -0.724250 10 23 31
-0.117886 -0.007884 -0.713777 14 31 39
-0.118605 -0.007854 -0.711071 17 34 42
-0.119498 -0.007837 -0.709458 18 35 45
-0.120479 -0.007825 -0.708386 18 35 45
-0.121548 -0.007819 -0.707851 20 34 45
-0.122708 -0.007819 -0.707851 19 33 44
-0.123868 -0.007819 -0.707851 16 33 43
-0.105342 -0.005307 -0.480483 16 27 31
-0.105266 -0.005264 -0.476577 17 28 34
-0.106048 -0.005264 -0.476577 17 28 34
-0.106450 -0.005246 -0.474888 18 29 35
-0.104220 -0.005098 -0.461567 18 29 35
-0.108007 -0.005246 -0.474888 18 28 37
-0.109785 -0.005294 -0.479256 18 28 37
-0.114054 -0.005098 -0.461567 17 35 49
-0.114811 -0.005098 -0.461567 13 31 45
-0.115567 -0.005098 -0.461567 13 31 45
-0.116324 -0.005098 -0.461567 12 30 44
-0.117080 -0.005098 -0.461567 11 29 41
-0.117836 -0.005098 -0.461567 12 30 40
-0.118593 -0.005098 -0.461567 12 30 40
-0.119349 -0.005098 -0.461567 13 31 41
-0.120106 -0.005098 -0.461567 16 33 43
-0.120862 -0.005098 -0.461567 17 34 44
-0.121619 -0.005098 -0.461567 17 34 44
-0.122375 -0.005098 -0.461567 20 34 47
-0.123132 -0.005098 -0.461567 19 33 46
-0.123888 -0.005098 -0.461567 17 31 42
-0.124645 -0.005098 -0.461567 16 30 41
-0.137791 -0.005254 -0.475610 25 44 58
-0.137801 -0.005224 -0.472972 27 46 60
-0.137674 -0.005190 -0.469891 30 49 63
-0.137960 -0.005172 -0.468249 32 54 68
-0.138176 -0.005152 -0.466386 32 54 68
-0.138596 -0.005139 -0.465230 31 53 67
-3.700401 -0.132820 -12.024399 39 62 78
-3.768421 -0.134545 -12.180560 40 63 79
-36.169109 -1.151110 -104.211456 0 0 0
-11.277900 -0.357241 -32.341488 0 0 0
-24.147602 -0.575555 -52.105728 0 0 0
-9.280723 -0.220425 -19.955385 0 0 0
-6.253301 -0.148000 -13.398616 0 0 0
-5.423064 -0.127901 -11.579051 0 0 0
-5.442040 -0.127901 -11.579051 0 0 0
0.003592 -0.006580 -0.518752 187 223 247
0.002742 -0.006580 -0.518752 182 219 245
0.001892 -0.006580 -0.518752 187 224 250
-0.002359 -0.006580 -0.518752 183 228 251
-0.003201 -0.006562 -0.517321 182 224 248
-0.003991 -0.006469 -0.510007 178 213 241
-0.004809 -0.006445 -0.508073 168 198 222
-0.005596 -0.006393 -0.503978 161 183 204
-0.006398 -0.006369 -0.502090 127 146 161
-0.007225 -0.006372 -0.502358 100 117 127
-0.008048 -0.006372 -0.502358 62 79 89
-0.008866 -0.006369 -0.502090 23 39 54
-0.009679 -0.006362 -0.501552 20 39 56
-0.010490 -0.006355 -0.501017 21 42 63
-0.011293 -0.006345 -0.500215 22 43 64
-0.012132 -0.006355 -0.501017 17 38 59
-0.012953 -0.006355 -0.501017 11 30 47
-0.077908 -0.009309 -0.733884 17 36 50
-0.078133 -0.009194 -0.724809 15 34 48
-0.079259 -0.009187 -0.724250 13 32 46
-0.080384 -0.009180 -0.723691 13 31 43
-0.081570 -0.009180 -0.723691 11 29 39
-0.082756 -0.009180 -0.723691 10 27 35
-0.083942 -0.009180 -0.723691 10 25 32
-0.085128 -0.009180 -0.723691 10 23 29
-0.086381 -0.009187 -0.724250 10 23 29
-0.117886 -0.009054 -0.713777 14 31 39
-0.118695 -0.009027 -0.711611 16 33 41
-0.119498 -0.008999 -0.709458 18 35 43
-0.120479 -0.008986 -0.708386 18 35 43
-0.121548 -0.008979 -0.707851 20 34 45
-0.122616 -0.008972 -0.707318 19 33 44
-0.123868 -0.008979 -0.707851 18 32 41
-0.125883 -0.009040 -0.712692 19 33 42
-0.102923 -0.006045 -0.476577 12 22 31
-0.103704 -0.006045 -0.476577 13 24 30
-0.104485 -0.006045 -0.476577 15 26 30
-0.105266 -0.006045 -0.476577 16 27 31
-0.106644 -0.006079 -0.479256 16 27 33
-0.107429 -0.006079 -0.479256 17 28 34
-0.107719 -0.006051 -0.477062 17 28 34
-0.108501 -0.006051 -0.477062 18 29 35
-0.109283 -0.006051 -0.477062 19 30 36
-0.110571 -0.006079 -0.479256 17 27 36
-0.114811 -0.005855 -0.461567 13 31 45
-0.115567 -0.005855 -0.461567 12 30 44
-0.116324 -0.005855 -0.461567 11 29 41
-0.117080 -0.005855 -0.461567 11 29 39
-0.117836 -0.005855 -0.461567 13 31 41
-0.118593 -0.005855 -0.461567 14 32 42
-0.119349 -0.005855 -0.461567 15 33 43
-0.120106 -0.005855 -0.461567 17 34 44
-0.120862 -0.005855 -0.461567 17 34 44
-0.121619 -0.005855 -0.461567 17 34 44
-0.122375 -0.005855 -0.461567 19 33 46
-0.123132 -0.005855 -0.461567 18 32 45
-0.123888 -0.005855 -0.461567 16 30 41
-0.124645 -0.005855 -0.461567 14 28 39
-0.137026 -0.006000 -0.472972 26 45 59
-0.136973 -0.005963 -0.470127 27 46 60
-0.137193 -0.005940 -0.468249 29 48 62
-0.137411 -0.005916 -0.466386 33 52 66
-0.137765 -0.005898 -0.464999 31 53 67
-0.137504 -0.005855 -0.461567 31 53 67
-0.138261 -0.005855 -0.461567 32 54 68
-35.998318 -1.321900 -104.211456 0 0 0
-11.224895 -0.410245 -32.341488 0 0 0
-8.176477 -0.297428 -23.447578 0 0 0
-8.214905 -0.297428 -23.447578 0 0 0
-0.002326 -0.007325 -0.511398 181 225 250
-0.003155 -0.007305 -0.510007 179 221 246
-0.003976 -0.007277 -0.508073 176 211 241
-0.004752 -0.007192 -0.502090 167 197 223
-0.005563 -0.007176 -0.501017 160 185 205
-0.006371 -0.007161 -0.499948 128 147 162
-0.007190 -0.007161 -0.499948 101 118 128
-0.008026 -0.007176 -0.501017 63 77 88
-0.008848 -0.007176 -0.501017 24 40 55
-0.009669 -0.007176 -0.501017 22 39 57
-0.010473 -0.007165 -0.500215 23 41 63
-0.011281 -0.007157 -0.499682 22 43 64
-0.012113 -0.007165 -0.500215 19 40 59
-0.012953 -0.007176 -0.501017 12 31 48
-0.077908 -0.010512 -0.733884 16 35 49
-0.078314 -0.010406 -0.726494 14 33 47
-0.079259 -0.010374 -0.724250 12 32 43
-0.080384 -0.010366 -0.723691 12 28 41
-0.081507 -0.010358 -0.723133 11 28 38
-0.082692 -0.010358 -0.723133 11 25 34
-0.083813 -0.010350 -0.722576 10 25 32
-0.084997 -0.010350 -0.722576 10 23 29
-0.086314 -0.010366 -0.723691 10 23 29
-0.118156 -0.010247 -0.715410 14 31 39
-0.118695 -0.010193 -0.711611 16 33 41
-0.119408 -0.010154 -0.708921 18 35 43
-0.120479 -0.010147 -0.708386 18 35 43
-0.121456 -0.010131 -0.707318 20 34 45
-0.122431 -0.010116 -0.706252 19 33 44
-0.123588 -0.010116 -0.706252 19 33 42
-0.125883 -0.010208 -0.712692 20 34 43
-0.098925 -0.006611 -0.461567 11 24 33
-0.099682 -0.006611 -0.461567 12 22 32
-0.100438 -0.006611 -0.461567 13 23 32
-0.101195 -0.006611 -0.461567 14 25 31
-0.105266 -0.006826 -0.476577 15 26 30
-0.106644 -0.006865 -0.479256 16 27 33
-0.107429 -0.006865 -0.479256 16 27 33
-0.108214 -0.006865 -0.479256 17 28 34
-0.108778 -0.006851 -0.478278 17 28 34
-0.109283 -0.006833 -0.477062 18 29 35
-0.110065 -0.006833 -0.477062 17 27 36
-0.110846 -0.006833 -0.477062 17 27 36
-0.115567 -0.006611 -0.461567 13 29 42
-0.116324 -0.006611 -0.461567 12 28 41
-0.117080 -0.006611 -0.461567 12 29 39
-0.117836 -0.006611 -0.461567 14 31 41
-0.118593 -0.006611 -0.461567 16 33 41
-0.119349 -0.006611 -0.461567 16 33 41
-0.120106 -0.006611 -0.461567 17 34 44
-0.120862 -0.006611 -0.461567 17 34 44
-0.121619 -0.006611 -0.461567 16 33 43
-0.122375 -0.006611 -0.461567 18 32 43
-0.123132 -0.006611 -0.461567 18 30 42
-0.123888 -0.006611 -0.461567 16 28 40
-0.124645 -0.006611 -0.461567 15 27 39
-0.137011 -0.006812 -0.475610 24 43 57
-0.137026 -0.006775 -0.472972 26 45 59
-0.136904 -0.006731 -0.469891 27 46 60
-0.136988 -0.006697 -0.467549 29 48 62
-0.137071 -0.006664 -0.465230 31 50 64
-0.136748 -0.006611 -0.461567 31 53 67
-0.137504 -0.006611 -0.461567 31 53 67
-0.138261 -0.006611 -0.461567 32 54 68
-0.139017 -0.006611 -0.461567 34 56 70
-3.149892 -0.138497 -9.669105 0 0 0
-3.101784 -0.135699 -9.473769 0 0 0
-3.117311 -0.135699 -9.473769 0 0 0
-16.199244 -0.671711 -46.895157 0 0 0
-8.797891 -0.363087 -25.348734 0 0 0
-6.412923 -0.263416 -18.390257 0 0 0
-6.443063 -0.263416 -18.390257 0 0 0
-6.473202 -0.263416 -18.390257 0 0 0
0.099545 -0.008132 -0.509453 7 58 89
0.098710 -0.008132 -0.509453 7 58 89
-0.001505 -0.008258 -0.517321 182 224 248
-0.002325 -0.008159 -0.511119 182 227 250
-0.003143 -0.008110 -0.508073 179 220 248
-0.003938 -0.008032 -0.503167 176 211 241
-0.004742 -0.007998 -0.501017 167 198 226
-0.005539 -0.007963 -0.498885 161 186 206
-0.006347 -0.007951 -0.498090 126 148 162
-0.007159 -0.007947 -0.497825 101 117 130
-0.007975 -0.007947 -0.497825 60 74 87
-0.008791 -0.007947 -0.497825 24 40 56
-0.009648 -0.007980 -0.499948 22 39 59
-0.010462 -0.007976 -0.499682 22 40 62
-0.011281 -0.007976 -0.499682 21 42 63
-0.012100 -0.007976 -0.499682 21 42 61
-0.012932 -0.007985 -0.500215 13 32 47
-0.077908 -0.011715 -0.733884 16 34 48
-0.078741 -0.011660 -0.730454 13 31 43
-0.079321 -0.011570 -0.724809 10 28 38
-0.080384 -0.011552 -0.723691 11 28 38
-0.081507 -0.011543 -0.723133 11 28 36
-0.082629 -0.011534 -0.722576 12 27 34
-0.083813 -0.011534 -0.722576 10 25 32
-0.084997 -0.011534 -0.722576 10 23 29
-0.086314 -0.011552 -0.723691 10 23 29
-0.119056 -0.011394 -0.713777 17 34 42
-0.119408 -0.011316 -0.708921 17 34 42
-0.120388 -0.011299 -0.707851 18 35 43
-0.121365 -0.011282 -0.706785 18 32 41
-0.122431 -0.011274 -0.706252 19 33 42
-0.123588 -0.011274 -0.706252 20 34 43
-0.125883 -0.011376 -0.712692 20 34 43
-0.098169 -0.007368 -0.461567 12 26 37
-0.098925 -0.007368 -0.461567 11 25 34
-0.099682 -0.007368 -0.461567 11 24 33
-0.100438 -0.007368 -0.461567 10 23 31
-0.101195 -0.007368 -0.461567 13 24 30
-0.105266 -0.007607 -0.476577 14 25 31
-0.106917 -0.007670 -0.480483 15 26 32
-0.107704 -0.007670 -0.480483 16 27 33
-0.108492 -0.007670 -0.480483 16 27 33
-0.109000 -0.007650 -0.479256 16 27 33
-0.109283 -0.007615 -0.477062 16 27 33
-0.110009 -0.007611 -0.476819 17 28 34
-0.110734 -0.007607 -0.476577 17 28 34
-0.111232 -0.007588 -0.475369 15 28 36
-0.111334 -0.007542 -0.472495 14 27 35
-0.110112 -0.007408 -0.464079 15 28 37
-0.116324 -0.007368 -0.461567 11 27 40
-0.117080 -0.007368 -0.461567 12 29 39
-0.117836 -0.007368 -0.461567 13 30 40
-0.118593 -0.007368 -0.461567 15 32 40
-0.119349 -0.007368 -0.461567 15 32 40
-0.120106 -0.007368 -0.461567 16 33 43
-0.120862 -0.007368 -0.461567 15 32 42
-0.121619 -0.007368 -0.461567 14 31 41
-0.122375 -0.007368 -0.461567 17 29 41
-0.123132 -0.007368 -0.461567 15 28 37
-0.123888 -0.007368 -0.461567 15 28 37
-0.124645 -0.007368 -0.461567 15 28 37
-0.125401 -0.007368 -0.461567 15 28 37
-0.137011 -0.007592 -0.475610 25 43 55
-0.137026 -0.007550 -0.472972 26 44 56
-0.136973 -0.007504 -0.470127 29 47 59
-0.137056 -0.007467 -0.467782 30 48 60
-0.137071 -0.007426 -0.465230 31 50 64
-0.136748 -0.007368 -0.461567 32 51 65
-0.137504 -0.007368 -0.461567 32 51 65
-0.138261 -0.007368 -0.461567 32 54 68
-0.139017 -0.007368 -0.461567 33 55 69
-3.134046 -0.154344 -9.669105 0 0 0
-3.086258 -0.151226 -9.473769 0 0 0
-2.843302 -0.138623 -8.684288 0 0 0
-2.857535 -0.138623 -8.684288 0 0 0
-16.199244 -0.748566 -46.895157 0 0 0
-9.574176 -0.440333 -27.585386 0 0 0
-8.839435 -0.404630 -25.348734 0 0 0
-8.880979 -0.404630 -25.348734 0 0 0
0.143637 -0.010847 -0.616231 8 18 20
0.142627 -0.010847 -0.616231 16 26 28
0.101490 -0.008992 -0.510840 2 55 86
0.100434 -0.008972 -0.509730 5 54 84
0.099545 -0.008967 -0.509453 7 56 86
0.098710 -0.008967 -0.509453 7 56 86
0.097875 -0.008967 -0.509453 5 56 83
0.097093 -0.008972 -0.509730 3 57 85
-0.001488 -0.009001 -0.511398 183 225 250
-0.002318 -0.008972 -0.509730 183 227 252
-0.003143 -0.008943 -0.508073 181 225 254
-0.003927 -0.008833 -0.501821 179 220 250
-0.004732 -0.008800 -0.499948 166 197 225
-0.005531 -0.008767 -0.498090 161 188 207
-0.006337 -0.008753 -0.497298 126 148 162
-0.007144 -0.008744 -0.496771 101 117 130
-0.007950 -0.008735 -0.496245 57 71 84
-0.008773 -0.008744 -0.496771 24 40 56
-0.009607 -0.008762 -0.497825 23 40 60
-0.010428 -0.008767 -0.498090 22 40 62
-0.011257 -0.008776 -0.498619 21 42 63
-0.012100 -0.008795 -0.499682 21 42 61
-0.012925 -0.008800 -0.499948 13 32 47
-0.078864 -0.012877 -0.731594 11 27 40
-0.079382 -0.012768 -0.725370 10 27 37
-0.080322 -0.012728 -0.723133 11 28 38
-0.081445 -0.012718 -0.722576 10 27 35
-0.082565 -0.012709 -0.722019 10 25 32
-0.083748 -0.012709 -0.722019 9 24 31
-0.084997 -0.012718 -0.722576 9 22 28
-0.119408 -0.012478 -0.708921 16 33 41
-0.120297 -0.012450 -0.707318 17 34 42
-0.121273 -0.012431 -0.706252 20 34 43
-0.122431 -0.012431 -0.706252 21 34 43
-0.123588 -0.012431 -0.706252 21 34 43
-0.098169 -0.008124 -0.461567 13 27 40
-0.098925 -0.008124 -0.461567 11 25 36
-0.099682 -0.008124 -0.461567 11 23 35
-0.100438 -0.008124 -0.461567 10 23 32
-0.101195 -0.008124 -0.461567 14 24 33
-0.101951 -0.008124 -0.461567 14 25 31
-0.106972 -0.008462 -0.480729 15 26 32
-0.107759 -0.008462 -0.480729 16 27 33
-0.108547 -0.008462 -0.480729 16 27 33
-0.108778 -0.008418 -0.478278 16 27 33
-0.109283 -0.008397 -0.477062 16 27 33
-0.110009 -0.008393 -0.476819 17 28 34
-0.110734 -0.008388 -0.476577 17 28 34
-0.110727 -0.008329 -0.473210 15 28 34
-0.109351 -0.008168 -0.464079 14 27 33
-0.109516 -0.008124 -0.461567 15 28 36
-0.110272 -0.008124 -0.461567 16 29 37
-0.111633 -0.008168 -0.464079 17 30 38
-0.116324 -0.008124 -0.461567 11 27 40
-0.117080 -0.008124 -0.461567 12 29 39
-0.117836 -0.008124 -0.461567 13 30 40
-0.118593 -0.008124 -0.461567 14 31 39
-0.119349 -0.008124 -0.461567 14 31 39
-0.120106 -0.008124 -0.461567 14 31 41
-0.120862 -0.008124 -0.461567 14 31 41
-0.121619 -0.008124 -0.461567 13 30 40
-0.122375 -0.008124 -0.461567 15 28 37
-0.123132 -0.008124 -0.461567 15 28 37
-0.123888 -0.008124 -0.461567 15 28 37
-0.124645 -0.008124 -0.461567 15 28 37
-0.125401 -0.008124 -0.461567 15 28 37
-0.137011 -0.008371 -0.475610 25 43 55
-0.137026 -0.008325 -0.472972 26 44 56
-0.136973 -0.008275 -0.470127 28 46 58
-0.137056 -0.008234 -0.467782 30 48 60
-0.137071 -0.008189 -0.465230 31 49 63
-0.136748 -0.008124 -0.461567 32 51 65
-0.137504 -0.008124 -0.461567 32 51 65
-0.138261 -0.008124 -0.461567 31 53 66
-0.139017 -0.008124 -0.461567 33 55 68
-0.139774 -0.008124 -0.461567 34 56 70
-3.070731 -0.166752 -9.473769 0 0 0
-2.829070 -0.152856 -8.684288 0 0 0
-2.741756 -0.147397 -8.374135 0 0 0
-2.755480 -0.147397 -8.374135 0 0 0
-2.769204 -0.147397 -8.374135 0 0 0
-20.249054 -1.031777 -58.618946 0 0 0
-16.276098 -0.825422 -46.895157 0 0 0
-14.219960 -0.717758 -40.778397 0 0 0
-20.537262 -1.031777 -58.618946 0 0 0
0.146087 -0.011974 -0.622364 7 17 19
0.143637 -0.011856 -0.616231 9 19 21
0.142627 -0.011856 -0.616231 17 27 29
0.103170 -0.009910 -0.515048 4 52 74
0.101215 -0.009802 -0.509453 4 54 81
0.100380 -0.009802 -0.509453 6 52 76
0.099491 -0.009797 -0.509176 7 54 80
0.098656 -0.009797 -0.509176 8 58 83
0.097875 -0.009802 -0.509453 5 56 83
0.096987 -0.009797 -0.509176 2 56 84
0.096153 -0.009797 -0.509176 5 58 89
-0.001488 -0.009839 -0.511398 182 223 251
-0.002318 -0.009807 -0.509730 181 225 250
-0.003142 -0.009770 -0.507798 181 222 252
-0.003925 -0.009650 -0.501552 177 218 248
-0.004722 -0.009599 -0.498885 175 211 243
-0.005522 -0.009568 -0.497298 161 188 207
-0.006327 -0.009553 -0.496508 126 148 162
-0.007133 -0.009543 -0.495983 102 118 131
-0.007946 -0.009543 -0.495983 55 69 82
-0.008763 -0.009548 -0.496245 24 40 56
-0.009587 -0.009558 -0.496771 23 40 60
-0.010428 -0.009583 -0.498090 22 40 62
-0.011245 -0.009583 -0.498090 22 43 64
-0.012100 -0.009614 -0.499682 20 41 60
-0.012925 -0.009619 -0.499948 13 32 47
-0.079111 -0.014120 -0.733884 11 28 38
-0.079938 -0.014054 -0.730454 10 27 37
-0.080571 -0.013956 -0.725370 11 28 36
-0.081507 -0.013913 -0.723133 10 27 35
-0.082629 -0.013903 -0.722576 11 26 33
-0.083813 -0.013903 -0.722576 9 24 29
-0.120501 -0.013765 -0.715410 16 33 41
-0.120297 -0.013609 -0.707318 18 35 43
-0.121273 -0.013589 -0.706252 21 34 43
-0.122431 -0.013589 -0.706252 21 34 43
-0.123588 -0.013589 -0.706252 21 34 43
-0.098169 -0.008881 -0.461567 12 28 41
-0.098925 -0.008881 -0.461567 9 26 36
-0.099682 -0.008881 -0.461567 10 24 35
-0.100438 -0.008881 -0.461567 10 24 33
-0.101195 -0.008881 -0.461567 12 25 33
-0.101951 -0.008881 -0.461567 13 26 32
-0.106972 -0.009249 -0.480729 15 26 32
-0.107759 -0.009249 -0.480729 15 26 32
-0.108547 -0.009249 -0.480729 15 26 32
-0.108778 -0.009202 -0.478278 16 27 31
-0.109450 -0.009193 -0.477791 17 28 32
-0.109953 -0.009169 -0.476577 17 28 34
-0.110453 -0.009146 -0.475369 17 28 34
-0.110560 -0.009091 -0.472495 15 28 34
-0.108759 -0.008881 -0.461567 15 28 34
-0.109516 -0.008881 -0.461567 15 28 36
-0.110272 -0.008881 -0.461567 16 29 37
-0.111028 -0.008881 -0.461567 16 29 37
-0.117080 -0.008881 -0.461567 12 29 39
-0.117836 -0.008881 -0.461567 13 30 40
-0.118593 -0.008881 -0.461567 13 30 38
-0.119349 -0.008881 -0.461567 13 30 38
-0.120106 -0.008881 -0.461567 13 30 40
-0.120862 -0.008881 -0.461567 14 28 39
-0.121619 -0.008881 -0.461567 14 28 39
-0.122375 -0.008881 -0.461567 15 28 37
-0.123132 -0.008881 -0.461567 17 27 37
-0.123888 -0.008881 -0.461567 17 27 37
-0.124645 -0.008881 -0.461567 18 28 38
-0.125401 -0.008881 -0.461567 16 29 38
-0.126157 -0.008881 -0.461567 16 29 38
-0.137290 -0.009169 -0.476577 25 43 55
-0.137234 -0.009114 -0.473688 26 44 56
-0.136973 -0.009045 -0.470127 27 45 57
-0.137056 -0.009000 -0.467782 28 46 58
-0.137003 -0.008947 -0.464999 30 48 62
-0.136748 -0.008881 -0.461567 32 50 64
-0.137504 -0.008881 -0.461567 32 51 65
-0.138261 -0.008881 -0.461567 30 52 65
-0.139017 -0.008881 -0.461567 32 54 67
-0.139774 -0.008881 -0.461567 34 56 70
-2.951480 -0.175199 -9.105856 0 0 0
-2.752608 -0.162573 -8.449577 0 0 0
-2.741756 -0.161121 -8.374135 0 0 0
-2.755480 -0.161121 -8.374135 0 0 0
-2.769204 -0.161121 -8.374135 0 0 0
-24.921911 -1.388119 -72.146393 0 0 0
-25.040152 -1.388119 -72.146393 0 0 0
-25.158390 -1.388119 -72.146393 0 0 0
0.144837 -0.012883 -0.617042 8 18 20
0.142420 -0.012757 -0.611012 9 19 21
0.141419 -0.012757 -0.611012 15 26 28
0.140418 -0.012757 -0.611012 22 33 35
0.104589 -0.010813 -0.517892 12 48 64
0.102272 -0.010660 -0.510562 9 50 68
0.101215 -0.010637 -0.509453 8 50 74
0.100271 -0.010625 -0.508900 6 52 76
0.099329 -0.010614 -0.508349 5 51 74
0.098603 -0.010625 -0.508900 2 50 73
0.097769 -0.010625 -0.508900 5 55 82
0.096935 -0.010625 -0.508900 4 55 84
0.096101 -0.010625 -0.508900 1 54 85
0.095267 -0.010625 -0.508900 4 61 91
-0.002318 -0.010643 -0.509730 183 225 250
-0.003142 -0.010602 -0.507798 182 221 252
-0.003923 -0.010466 -0.501284 179 218 249
-0.004714 -0.010400 -0.498090 177 212 242
-0.005513 -0.010367 -0.496508 167 198 226
-0.006317 -0.010350 -0.495720 124 147 161
-0.007125 -0.010345 -0.495459 101 117 130
-0.007946 -0.010356 -0.495983 53 67 80
-0.008759 -0.010356 -0.495983 22 38 54
-0.009587 -0.010372 -0.496771 22 39 59
-0.010417 -0.010389 -0.497561 20 40 64
-0.011245 -0.010400 -0.498090 22 42 66
-0.012061 -0.010400 -0.498090 19 40 59
-0.012891 -0.010411 -0.498619 13 32 47
-0.080314 -0.015323 -0.733884 10 27 37
-0.081262 -0.015275 -0.731594 13 27 36
-0.081760 -0.015145 -0.725370 12 26 35
-0.120570 -0.014802 -0.708921 18 35 43
-0.121273 -0.014746 -0.706252 21 34 43
-0.122431 -0.014746 -0.706252 21 34 43
-0.123588 -0.014746 -0.706252 21 34 43
-0.098169 -0.009637 -0.461567 14 30 43
-0.098925 -0.009637 -0.461567 11 27 40
-0.099682 -0.009637 -0.461567 11 25 36
-0.100438 -0.009637 -0.461567 11 25 34
-0.101195 -0.009637 -0.461567 13 26 34
-0.101951 -0.009637 -0.461567 13 26 32
-0.106972 -0.010037 -0.480729 15 26 32
-0.107759 -0.010037 -0.480729 15 26 32
-0.108547 -0.010037 -0.480729 15 26 32
-0.108778 -0.009986 -0.478278 16 27 31
-0.109450 -0.009976 -0.477791 17 28 32
-0.110009 -0.009956 -0.476819 17 28 32
-0.110734 -0.009951 -0.476577 17 28 32
-0.110560 -0.009865 -0.472495 15 29 32
-0.108759 -0.009637 -0.461567 15 29 32
-0.109516 -0.009637 -0.461567 15 28 34
-0.110272 -0.009637 -0.461567 15 28 34
-0.111028 -0.009637 -0.461567 16 29 35
-0.111785 -0.009637 -0.461567 18 31 39
-0.117080 -0.009637 -0.461567 12 29 39
-0.117836 -0.009637 -0.461567 13 30 38
-0.118593 -0.009637 -0.461567 13 30 38
-0.119349 -0.009637 -0.461567 12 29 37
-0.120106 -0.009637 -0.461567 14 28 39
-0.120862 -0.009637 -0.461567 14 28 39
-0.121619 -0.009637 -0.461567 14 26 38
-0.122375 -0.009637 -0.461567 17 27 37
-0.123132 -0.009637 -0.461567 17 27 37
-0.123888 -0.009637 -0.461567 18 28 38
-0.124645 -0.009637 -0.461567 19 29 39
-0.125401 -0.009637 -0.461567 17 30 39
-0.126157 -0.009637 -0.461567 18 31 40
-0.126914 -0.009637 -0.461567 22 35 44
-0.137499 -0.009966 -0.477304 25 43 55
-0.137303 -0.009895 -0.473928 26 43 53
-0.136973 -0.009816 -0.470127 27 43 56
-0.137056 -0.009767 -0.467782 29 45 58
-0.136732 -0.009690 -0.464079 30 48 60
-0.136748 -0.009637 -0.461567 31 49 61
-0.137504 -0.009637 -0.461567 32 51 65
-0.138261 -0.009637 -0.461567 30 52 65
-0.139017 -0.009637 -0.461567 31 53 66
-0.139774 -0.009637 -0.461567 34 56 70
-0.140530 -0.009637 -0.461567 35 57 71
-3.118199 -0.201883 -9.669105 0 0 0
-2.841144 -0.183015 -8.765450 0 0 0
-2.728031 -0.174845 -8.374135 0 0 0
-2.741756 -0.174845 -8.374135 0 0 0
-2.731095 -0.173298 -8.300028 0 0 0
-2.769204 -0.174845 -8.374135 0 0 0
-25.040152 -1.506358 -72.146393 0 0 0
-25.158390 -1.506358 -72.146393 0 0 0
-5.319438 -0.238813 -11.437843 0 0 0
-5.089896 -0.227705 -10.905850 0 0 0
-5.107769 -0.227705 -10.905850 0 0 0
0.147695 -0.014070 -0.624852 9 17 20
0.144837 -0.013895 -0.617042 11 21 23
0.142420 -0.013759 -0.611012 14 24 26
0.141419 -0.013759 -0.611012 15 26 28
0.140418 -0.013759 -0.611012 22 36 39
0.106377 -0.011766 -0.522509 16 38 49
0.103843 -0.011579 -0.514201 16 44 56
0.102272 -0.011497 -0.510562 13 46 61
0.100995 -0.011447 -0.508349 11 48 67
0.100162 -0.011447 -0.508349 12 55 74
0.099275 -0.011441 -0.508073 10 53 72
0.098603 -0.011459 -0.508900 6 52 75
0.097769 -0.011459 -0.508900 3 50 76
0.096935 -0.011459 -0.508900 2 53 82
0.095996 -0.011447 -0.508349 3 56 87
0.095163 -0.011447 -0.508349 3 58 89
0.094279 -0.011441 -0.508073 1 60 90
0.093599 -0.011459 -0.508900 4 65 94
-0.002316 -0.011466 -0.509176 184 224 249
-0.003130 -0.011391 -0.505881 184 221 250
-0.003917 -0.011270 -0.500482 182 219 248
-0.004704 -0.011192 -0.497034 181 216 244
-0.005501 -0.011157 -0.495459 168 200 225
-0.006284 -0.011104 -0.493114 158 185 204
-0.007092 -0.011104 -0.493114 126 149 163
-0.007900 -0.011104 -0.493114 47 61 74
-0.008754 -0.011163 -0.495720 27 42 61
-0.009587 -0.011186 -0.496771 23 39 62
-0.010417 -0.011204 -0.497561 18 38 63
-0.011245 -0.011216 -0.498090 20 42 65
-0.012061 -0.011216 -0.498090 17 38 57
-0.012877 -0.011216 -0.498090 14 33 48
-0.098169 -0.010394 -0.461567 16 34 46
-0.098925 -0.010394 -0.461567 12 30 42
-0.099682 -0.010394 -0.461567 10 27 37
-0.100438 -0.010394 -0.461567 11 25 34
-0.101195 -0.010394 -0.461567 12 25 33
-0.101951 -0.010394 -0.461567 13 26 34
-0.102707 -0.010394 -0.461567 13 26 32
-0.107649 -0.010814 -0.480237 13 26 32
-0.108436 -0.010814 -0.480237 15 26 32
-0.108667 -0.010759 -0.477791 16 27 31
-0.109450 -0.010759 -0.477791 15 26 30
-0.109953 -0.010732 -0.476577 16 27 31
-0.109952 -0.010656 -0.473210 17 28 32
-0.108003 -0.010394 -0.461567 17 28 32
-0.108759 -0.010394 -0.461567 15 29 32
-0.109516 -0.010394 -0.461567 15 28 34
-0.110272 -0.010394 -0.461567 15 28 34
-0.111028 -0.010394 -0.461567 15 28 34
-0.111785 -0.010394 -0.461567 18 31 39
-0.112541 -0.010394 -0.461567 20 33 41
-0.117836 -0.010394 -0.461567 12 29 37
-0.118593 -0.010394 -0.461567 12 29 37
-0.119349 -0.010394 -0.461567 14 28 39
-0.120106 -0.010394 -0.461567 13 27 38
-0.120862 -0.010394 -0.461567 13 27 38
-0.121619 -0.010394 -0.461567 13 27 38
-0.122375 -0.010394 -0.461567 16 26 36
-0.123132 -0.010394 -0.461567 18 27 36
-0.123888 -0.010394 -0.461567 17 27 36
-0.124645 -0.010394 -0.461567 18 28 37
-0.125401 -0.010394 -0.461567 17 30 38
-0.126157 -0.010394 -0.461567 20 33 41
-0.126914 -0.010394 -0.461567 20 34 43
-0.127670 -0.010394 -0.461567 21 35 44
-0.137499 -0.010748 -0.477304 26 43 53
-0.137442 -0.010683 -0.474407 26 43 53
-0.136973 -0.010586 -0.470127 27 43 56
-0.137056 -0.010534 -0.467782 29 45 58
-0.136732 -0.010450 -0.464079 30 48 60
-0.136748 -0.010394 -0.461567 31 49 61
-0.137504 -0.010394 -0.461567 32 51 65
-0.138261 -0.010394 -0.461567 29 51 64
-0.139017 -0.010394 -0.461567 30 52 65
-0.139774 -0.010394 -0.461567 32 54 68
-0.140530 -0.010394 -0.461567 33 55 69
-0.142056 -0.010450 -0.464079 33 55 69
-3.118199 -0.217730 -9.669105 0 0 0
-2.841144 -0.197381 -8.765450 0 0 0
-2.728031 -0.188569 -8.374135 0 0 0
-2.717492 -0.186901 -8.300028 0 0 0
-2.731095 -0.186901 -8.300028 0 0 0
-2.744698 -0.186901 -8.300028 0 0 0
-8.201073 -0.398486 -17.696285 0 0 0
-5.072022 -0.245579 -10.905850 0 0 0
-4.466643 -0.215508 -9.570440 0 0 0
-4.482328 -0.215508 -9.570440 0 0 0
-4.498013 -0.215508 -9.570440 0 0 0
0.149016 -0.015125 -0.626104 12 17 20
0.147204 -0.015044 -0.622778 11 19 22
0.144837 -0.014906 -0.617042 15 25 27
0.142420 -0.014760 -0.611012 18 28 30
0.141419 -0.014760 -0.611012 18 29 31
0.140418 -0.014760 -0.611012 22 36 39
0.105032 -0.012463 -0.515898 13 32 39
0.103786 -0.012415 -0.513920 13 35 46
0.102216 -0.012327 -0.510285 10 38 49
0.100668 -0.012240 -0.506701 10 42 57
0.099837 -0.012240 -0.506701 10 47 65
0.099007 -0.012240 -0.506701 10 53 72
0.098442 -0.012273 -0.508073 11 54 73
0.097610 -0.012273 -0.508073 3 49 73
0.096777 -0.012273 -0.508073 2 52 79
0.095944 -0.012273 -0.508073 6 57 88
0.095112 -0.012273 -0.508073 4 57 88
0.094279 -0.012273 -0.508073 5 58 89
0.093497 -0.012280 -0.508349 5 58 89
0.092714 -0.012287 -0.508624 6 61 91
-0.001481 -0.012300 -0.509176 189 227 250
-0.002301 -0.012221 -0.505881 185 223 244
-0.003096 -0.012090 -0.500482 186 222 248
-0.003892 -0.012013 -0.497298 183 219 245
-0.004697 -0.011988 -0.496245 180 214 242
-0.005475 -0.011912 -0.493114 171 203 228
-0.006277 -0.011900 -0.492596 160 187 206
-0.007084 -0.011900 -0.492596 127 150 164
-0.007883 -0.011887 -0.492079 90 108 120
-0.008699 -0.011900 -0.492596 27 42 61
-0.009587 -0.012000 -0.496771 23 39 62
-0.010428 -0.012032 -0.498090 19 41 65
-0.011245 -0.012032 -0.498090 18 42 66
-0.012061 -0.012032 -0.498090 14 37 55
-0.012877 -0.012032 -0.498090 12 31 46
-0.013774 -0.012103 -0.501017 14 32 46
-0.098169 -0.011150 -0.461567 18 37 51
-0.098925 -0.011150 -0.461567 14 32 44
-0.099682 -0.011150 -0.461567 10 28 40
-0.100438 -0.011150 -0.461567 9 26 36
-0.101195 -0.011150 -0.461567 11 26 33
-0.101951 -0.011150 -0.461567 12 25 33
-0.102707 -0.011150 -0.461567 13 26 32
-0.103464 -0.011150 -0.461567 13 26 32
-0.107884 -0.011542 -0.477791 15 26 32
-0.108611 -0.011536 -0.477547 16 25 30
-0.109172 -0.011513 -0.476577 17 26 31
-0.109176 -0.011431 -0.473210 17 26 31
-0.107246 -0.011150 -0.461567 17 26 31
-0.108003 -0.011150 -0.461567 18 27 34
-0.108759 -0.011150 -0.461567 17 28 34
-0.109516 -0.011150 -0.461567 17 27 36
-0.110272 -0.011150 -0.461567 17 27 36
-0.111028 -0.011150 -0.461567 18 28 37
-0.111785 -0.011150 -0.461567 17 30 38
-0.112541 -0.011150 -0.461567 20 33 41
-0.113298 -0.011150 -0.461567 21 34 43
-0.114054 -0.011150 -0.461567 20 33 42
-0.118593 -0.011150 -0.461567 14 28 39
-0.119349 -0.011150 -0.461567 14 28 39
-0.120106 -0.011150 -0.461567 13 27 38
-0.120862 -0.011150 -0.461567 12 26 37
-0.121619 -0.011150 -0.461567 12 26 37
-0.122375 -0.011150 -0.461567 16 26 35
-0.123132 -0.011150 -0.461567 18 27 36
-0.123888 -0.011150 -0.461567 17 27 36
-0.124645 -0.011150 -0.461567 18 28 37
-0.125401 -0.011150 -0.461567 18 31 39
-0.126157 -0.011150 -0.461567 20 33 41
-0.126914 -0.011150 -0.461567 20 34 43
-0.127670 -0.011150 -0.461567 22 36 45
-0.128427 -0.011150 -0.461567 25 39 48
-0.137569 -0.011536 -0.477547 26 43 53
-0.137512 -0.011466 -0.474647 26 43 53
-0.137041 -0.011363 -0.470363 27 43 56
-0.137056 -0.011300 -0.467782 29 45 58
-0.136732 -0.011211 -0.464079 30 48 60
-0.136748 -0.011150 -0.461567 30 48 60
-0.137504 -0.011150 -0.461567 30 49 63
-0.138261 -0.011150 -0.461567 29 51 64
-0.139017 -0.011150 -0.461567 30 52 65
-0.139774 -0.011150 -0.461567 31 53 67
-0.140530 -0.011150 -0.461567 32 54 68
-0.141287 -0.011150 -0.461567 31 53 67
-0.142816 -0.011211 -0.464079 31 53 67
-6.269337 -0.472018 -19.539648 0 0 0
-3.183845 -0.238493 -9.872664 0 0 0
-2.841144 -0.211747 -8.765450 0 0 0
-2.728031 -0.202294 -8.374135 0 0 0
-2.717492 -0.200503 -8.300028 0 0 0
-2.731095 -0.200503 -8.300028 0 0 0
-2.744698 -0.200503 -8.300028 0 0 0
-35.965218 -1.888073 -78.158592 0 0 0
-12.031103 -0.629358 -26.052864 0 0 0
-6.791513 -0.354014 -14.654737 0 0 0
-5.013723 -0.260424 -10.780496 0 0 0
-4.466643 -0.231193 -9.570440 0 0 0
-4.306551 -0.222126 -9.195128 0 0 0
-4.279663 -0.219970 -9.105856 0 0 0
0.150747 -0.016227 -0.629043 11 16 19
0.148917 -0.016140 -0.625686 12 17 20
0.147204 -0.016065 -0.622778 11 19 22
0.144837 -0.015917 -0.617042 17 27 29
0.142420 -0.015762 -0.611012 21 31 33
0.141419 -0.015762 -0.611012 20 31 33
0.140418 -0.015762 -0.611012 22 36 39
0.104801 -0.013279 -0.514766 12 27 32
0.103673 -0.013242 -0.513357 11 30 36
0.102105 -0.013149 -0.509730 9 32 40
0.100668 -0.013071 -0.506701 8 35 46
0.099837 -0.013071 -0.506701 6 38 51
0.099007 -0.013071 -0.506701 12 49 67
0.098177 -0.013071 -0.506701 7 45 64
0.097557 -0.013099 -0.507798 9 51 75
0.096777 -0.013106 -0.508073 7 53 79
0.095944 -0.013106 -0.508073 2 51 81
0.095112 -0.013106 -0.508073 8 57 89
0.094279 -0.013106 -0.508073 8 57 89
0.093446 -0.013106 -0.508073 7 56 86
0.092664 -0.013113 -0.508349 8 59 88
-0.001455 -0.012903 -0.500215 188 229 247
-0.002263 -0.012835 -0.497561 188 226 245
-0.003074 -0.012815 -0.496771 190 226 250
-0.003877 -0.012781 -0.495459 182 218 242
-0.004667 -0.012720 -0.493114 178 212 239
-0.005470 -0.012707 -0.492596 174 206 229
-0.006270 -0.012694 -0.492079 161 190 206
-0.007058 -0.012660 -0.490792 129 153 165
-0.007846 -0.012634 -0.489767 88 106 118
-0.008653 -0.012641 -0.490023 43 57 70
-0.009506 -0.012707 -0.492596 22 38 63
-0.010473 -0.012903 -0.500215 21 43 67
-0.011293 -0.012903 -0.500215 18 42 66
-0.012048 -0.012835 -0.497561 13 36 54
-0.012932 -0.012903 -0.500215 12 31 46
-0.013774 -0.012924 -0.501017 15 33 47
-0.098925 -0.011906 -0.461567 15 34 48
-0.099682 -0.011906 -0.461567 12 31 45
-0.100438 -0.011906 -0.461567 10 28 38
-0.101195 -0.011906 -0.461567 11 26 33
-0.101951 -0.011906 -0.461567 11 24 30
-0.102707 -0.011906 -0.461567 14 25 31
-0.103464 -0.011906 -0.461567 14 25 31
-0.104220 -0.011906 -0.461567 15 26 32
-0.104977 -0.011906 -0.461567 16 25 30
-0.105733 -0.011906 -0.461567 17 26 31
-0.106490 -0.011906 -0.461567 18 27 32
-0.107246 -0.011906 -0.461567 18 27 32
-0.108003 -0.011906 -0.461567 18 27 34
-0.108759 -0.011906 -0.461567 19 28 35
-0.109516 -0.011906 -0.461567 18 28 37
-0.110272 -0.011906 -0.461567 18 28 37
-0.111028 -0.011906 -0.461567 19 29 38
-0.111785 -0.011906 -0.461567 19 32 40
-0.112541 -0.011906 -0.461567 21 34 42
-0.113298 -0.011906 -0.461567 21 34 43
-0.114054 -0.011906 -0.461567 19 32 41
-0.114811 -0.011906 -0.461567 15 29 40
-0.118593 -0.011906 -0.461567 14 28 39
-0.119349 -0.011906 -0.461567 14 28 39
-0.120106 -0.011906 -0.461567 13 25 37
-0.120862 -0.011906 -0.461567 13 25 37
-0.121619 -0.011906 -0.461567 13 26 35
-0.122375 -0.011906 -0.461567 16 26 35
-0.123132 -0.011906 -0.461567 17 27 36
-0.123888 -0.011906 -0.461567 18 28 37
-0.124645 -0.011906 -0.461567 19 29 38
-0.125401 -0.011906 -0.461567 18 31 39
-0.126157 -0.011906 -0.461567 20 33 41
-0.126914 -0.011906 -0.461567 21 34 42
-0.127670 -0.011906 -0.461567 22 35 43
-0.128427 -0.011906 -0.461567 25 39 48
-0.129183 -0.011906 -0.461567 24 41 49
-0.138550 -0.012478 -0.483705 25 42 52
-0.137569 -0.012319 -0.477547 26 43 53
-0.137581 -0.012250 -0.474888 26 43 53
-0.137455 -0.012170 -0.471782 27 43 56
-0.137261 -0.012085 -0.468483 29 45 58
-0.136732 -0.011971 -0.464079 29 47 59
-0.136748 -0.011906 -0.461567 30 48 60
-0.137504 -0.011906 -0.461567 29 48 62
-0.138261 -0.011906 -0.461567 29 51 64
-0.139017 -0.011906 -0.461567 29 51 64
-0.139774 -0.011906 -0.461567 30 52 66
-0.140530 -0.011906 -0.461567 30 52 66
-0.141287 -0.011906 -0.461567 30 52 66
-0.142043 -0.011906 -0.461567 30 52 66
-0.143577 -0.011971 -0.464079 31 53 66
