ply
format ascii 1.0
element vertex 1226
property float x
property float y
property float z
property uchar red
property uchar green
property uchar blue
end_header
-0.336713 0.254812 0.803124 28 30 25
-0.337261 0.256222 0.807567 29 30 30
-0.329771 0.255515 0.805340 29 33 34
-0.327556 0.254812 0.803124 29 32 35
-0.324463 0.253418 0.798729 32 35 38
-0.325387 0.255163 0.804230 36 37 40
-0.664633 0.523301 1.649354 38 39 42
-0.677252 0.535401 1.687489 46 45 49
-0.674503 0.535401 1.687489 55 54 57
-0.677630 0.540083 1.702248 71 70 73
-0.676831 0.541663 1.707226 88 88 88
-0.680015 0.546456 1.722334 98 96 95
-0.683256 0.551335 1.737712 102 98 95
-0.712221 0.577098 1.818913 104 99 94
-0.751392 0.611381 1.926968 104 99 93
-0.784501 0.640999 2.020315 104 99 93
-0.845580 0.693815 2.186784 107 99 94
-0.885113 0.729325 2.298705 109 99 95
-0.895471 0.740994 2.335485 111 101 98
-0.906166 0.753043 2.373460 111 101 97
-0.902300 0.753043 2.373460 109 101 96
-0.920895 0.771869 2.432796 108 100 95
-1.705920 1.436036 4.526133 107 102 96
-1.905327 1.610857 5.077141 107 102 96
-1.930634 1.639368 5.167002 107 102 96
-2.108841 1.798530 5.668652 109 104 98
-2.099607 1.798530 5.668652 111 103 98
-2.474811 2.129294 6.711163 107 102 96
-2.936404 2.537652 7.998235 105 100 94
-3.498467 3.036862 9.571659 107 104 97
-4.426155 3.859345 12.163982 109 104 98
-5.875123 5.145794 16.218643 97 92 87
-6.192747 5.448488 17.172682 69 65 60
-6.164775 5.448488 17.172682 42 38 35
-0.993578 0.882136 2.780339 26 25 21
-0.948403 0.845884 2.666078 25 25 23
-0.944061 0.845884 2.666078 26 26 24
-0.952770 0.857632 2.703107 27 27 27
-0.966260 0.873814 2.754109 24 24 22
-0.980270 0.890618 2.807073 23 23 21
-1.004679 0.917072 2.890451 23 23 21
-1.997101 2.503359 7.890151 133 125 120
-1.984249 2.503359 7.890151 134 126 121
-1.971397 2.503359 7.890151 135 127 122
-2.041301 2.609135 8.223537 136 128 123
-2.181535 2.806797 8.846533 136 128 123
-2.918986 3.780583 11.915738 137 127 124
-3.051647 4.116635 12.974916 140 132 127
-2.841106 3.859345 12.163982 140 132 127
-2.708441 3.704972 11.677423 140 132 127
-2.689420 3.704972 11.677423 140 132 127
-2.670400 3.704972 11.677423 141 133 128
-3.012931 4.210195 13.269799 142 134 129
-8.226121 11.578036 36.491947 144 136 131
-10.051301 14.249891 44.913166 144 136 131
-9.978145 14.249891 44.913166 143 135 130
-4.023901 5.789018 18.245974 144 136 131
-3.994182 5.789018 18.245974 145 137 133
-3.964462 5.789018 18.245974 147 139 135
-6.995098 10.291588 32.437286 148 140 136
-7.886902 12.349905 38.924744 150 142 138
-5.867625 9.262429 29.193560 151 143 139
-5.820073 9.262429 29.193560 151 143 139
-5.772522 9.262429 29.193560 152 144 140
-6.361078 10.291588 32.437286 152 144 140
-6.308243 10.291588 32.437286 154 144 141
-6.255408 10.291588 32.437286 155 145 142
-6.202573 10.291588 32.437286 154 144 141
-10.063208 16.840780 53.079197 154 146 142
-9.976750 16.840780 53.079197 154 146 142
-3.119225 6.174953 19.462372 154 153 149
-3.087524 6.174953 19.462372 154 153 149
-3.274096 6.616021 20.852543 157 153 150
-8.918038 20.583176 64.874573 159 155 152
-6.609276 15.437382 48.655930 159 155 152
-5.597163 13.232041 41.705086 156 154 153
-5.529233 13.232041 41.705086 155 153 152
-5.097215 12.349905 38.924744 156 155 151
-4.719200 11.578036 36.491947 156 155 151
-3.388917 8.420390 26.539598 156 155 151
-2.538108 6.387882 20.133490 156 155 151
-3.302459 8.420390 26.539598 157 156 152
-3.983504 10.291588 32.437286 159 155 154
-4.716803 12.349905 38.924744 160 156 155
-5.826804 16.840780 53.079197 159 155 154
-4.857216 14.249891 44.913166 159 155 154
-4.784060 14.249891 44.913166 159 155 154
-5.567432 16.840780 53.079197 159 155 154
0.142215 0.132795 0.418546 38 45 49
0.141980 0.131943 0.415863 38 45 49
0.143065 0.132320 0.417051 36 43 47
0.144260 0.132795 0.418546 36 43 47
0.146411 0.134141 0.422789 37 44 48
0.148606 0.135515 0.427119 37 44 48
0.159699 0.144952 0.456863 37 44 48
0.163959 0.146095 0.460466 38 45 49
0.165623 0.146906 0.463022 38 45 49
0.166377 0.146906 0.463022 38 45 49
0.167264 0.147023 0.463390 37 44 48
0.169770 0.148555 0.468221 37 46 49
0.172190 0.149999 0.472770 39 48 51
0.174800 0.151595 0.477800 38 49 53
0.206046 0.173291 0.546184 40 51 53
0.207129 0.173454 0.546696 39 50 52
0.209590 0.174763 0.550822 40 49 52
-0.278855 0.200430 0.628494 34 34 32
-0.277831 0.200430 0.628494 35 35 33
-0.277105 0.200646 0.629172 33 33 31
-0.278179 0.202171 0.633954 32 32 30
-0.280189 0.204390 0.640912 34 34 32
-0.338863 0.255769 0.802021 34 34 32
-0.337557 0.255769 0.802021 31 33 30
-0.336713 0.256121 0.803124 30 32 29
-0.337261 0.257537 0.807567 29 30 30
-0.329317 0.256473 0.804230 29 33 34
-0.325764 0.254719 0.798729 30 34 35
-0.324463 0.254719 0.798729 32 35 38
-0.323162 0.254719 0.798729 33 36 39
-0.649945 0.514364 1.612904 36 37 40
-0.661947 0.525988 1.649354 42 43 46
-0.661128 0.527478 1.654026 47 48 51
-0.667894 0.535056 1.677791 58 59 61
-0.665161 0.535056 1.677791 75 74 77
-0.666257 0.538149 1.687489 90 90 90
-0.669312 0.542856 1.702248 99 97 96
-0.688623 0.560842 1.758648 102 98 95
-0.779698 0.637670 1.999559 102 98 93
-0.892602 0.733069 2.298705 104 99 93
-0.917764 0.756909 2.373460 105 100 94
-0.913898 0.756909 2.373460 107 99 94
-0.895471 0.744798 2.335485 108 100 95
-0.906166 0.756909 2.373460 109 101 96
-0.902300 0.756909 2.373460 110 100 96
-0.902101 0.759998 2.383148 109 101 96
-0.916932 0.775832 2.432796 107 102 96
-1.781404 1.513818 4.746920 106 103 96
-1.897058 1.619127 5.077141 108 103 97
-2.108841 1.807763 5.668652 111 103 98
-2.120192 1.825486 5.724227 109 101 96
-2.503588 2.165112 6.789200 108 103 97
-2.936404 2.550680 7.998235 107 102 96
-3.498467 3.052453 9.571659 106 103 96
-4.426155 3.879158 12.163982 108 103 97
-5.875123 5.172212 16.218643 97 92 87
-6.015811 5.319989 16.682034 71 66 61
-5.988639 5.319989 16.682034 42 38 33
-0.952746 0.850227 2.666078 26 25 21
-0.939820 0.842532 2.641951 25 23 22
-0.935517 0.842532 2.641951 26 26 24
-0.939718 0.850227 2.666078 26 26 24
-0.952778 0.866045 2.715680 24 24 22
-0.970934 0.886665 2.780339 23 23 21
-1.894685 2.387175 7.485528 133 125 120
-1.882492 2.387175 7.485528 133 125 120
-1.894589 2.418177 7.582743 134 126 121
-1.958545 2.516211 7.890151 135 127 122
-2.117372 2.738230 8.586341 136 126 122
-2.918986 3.799992 11.915738 136 126 123
-2.841106 3.879158 12.163982 140 132 127
-2.462219 3.385448 10.615840 140 132 127
-2.444928 3.385448 10.615840 140 132 127
-2.427636 3.385448 10.615840 140 132 127
-3.012931 4.231809 13.269799 142 134 129
-8.226121 11.637476 36.491947 144 136 131
-10.051301 14.323047 44.913166 145 137 132
-9.978145 14.323047 44.913166 144 136 131
-7.153603 10.344423 32.437286 145 137 132
-6.086372 8.866648 27.803389 145 137 132
-6.041085 8.866648 27.803389 146 138 134
-7.406574 10.952918 34.345364 146 138 134
-7.823500 12.413307 38.924744 151 143 139
-6.466748 10.344423 32.437286 151 143 139
-6.413913 10.344423 32.437286 152 142 139
-6.361078 10.344423 32.437286 152 144 140
-6.308243 10.344423 32.437286 153 145 141
-7.037334 11.637476 36.491947 153 145 140
-8.588179 14.323047 44.913166 153 145 140
-10.063208 16.927237 53.079197 153 145 141
-7.198212 14.323047 44.913166 154 153 149
-3.087524 6.206654 19.462372 156 152 149
-6.530024 15.516634 48.655930 158 154 153
-5.529233 13.299973 41.705086 155 153 152
-5.097215 12.413307 38.924744 155 154 150
-4.441600 10.952918 34.345364 156 155 151
-2.570902 6.420676 20.133490 156 155 151
-2.453505 6.206654 19.462372 156 155 151
-2.505314 6.420676 20.133490 156 155 151
-3.259231 8.463618 26.539598 159 155 152
-3.930669 10.344423 32.437286 159 155 154
-5.740346 16.927237 53.079197 159 155 154
-5.653889 16.927237 53.079197 159 155 154
-6.124176 18.619961 58.387119 159 155 154
0.142386 0.133000 0.417051 38 45 49
0.143475 0.133381 0.418246 37 44 48
0.145406 0.134537 0.421872 37 44 48
0.147802 0.136111 0.426806 37 44 48
0.168110 0.149198 0.467845 38 45 49
0.168872 0.149198 0.467845 37 44 48
0.171281 0.150647 0.472388 38 47 50
0.172609 0.151136 0.473921 38 49 53
0.174800 0.152373 0.477800 37 48 52
-0.279155 0.201671 0.629172 35 35 33
-0.278130 0.201671 0.629172 35 35 33
-0.277105 0.201671 0.629172 34 34 32
-0.278179 0.203204 0.633954 33 33 31
-0.280189 0.205434 0.640912 33 33 31
-0.338863 0.257075 0.802021 33 33 31
-0.337557 0.257075 0.802021 31 33 30
-0.337177 0.257783 0.804230 31 33 30
-0.339609 0.260655 0.813191 29 30 30
-0.325764 0.256020 0.798729 29 33 34
-0.323577 0.255321 0.796550 30 34 35
-0.323162 0.256020 0.798729 31 34 37
-0.634178 0.504449 1.573777 32 36 37
-0.647318 0.516991 1.612904 39 40 43
-0.659260 0.528674 1.649354 43 44 47
-0.658434 0.530172 1.654026 50 51 54
-0.665161 0.537789 1.677791 62 63 66
-0.666257 0.540898 1.687489 77 76 79
-0.669312 0.545629 1.702248 90 89 92
-0.712221 0.583024 1.818913 98 96 95
-0.896346 0.736814 2.298705 99 98 94
-0.921630 0.760775 2.373460 102 98 93
-0.917764 0.760775 2.373460 103 100 93
-0.913898 0.760775 2.373460 104 99 93
-0.910032 0.760775 2.373460 106 98 93
-0.906166 0.760775 2.373460 108 100 95
-0.902300 0.760775 2.373460 107 99 94
-0.902101 0.763880 2.383148 107 99 94
-0.916932 0.779794 2.432796 106 101 95
-0.932394 0.796386 2.484558 105 102 95
-1.864629 1.599578 4.990352 106 103 96
-2.108841 1.816996 5.668652 108 103 97
-2.514646 2.176170 6.789200 106 101 95
-2.909575 2.529063 7.890151 106 101 95
-3.349336 2.924229 9.122987 106 103 96
-3.556775 3.119177 9.731186 107 104 97
-4.520329 3.981929 12.422791 107 102 97
-5.875123 5.198629 16.218643 97 92 87
-6.579793 5.848457 18.245974 72 67 62
-6.550074 5.848457 18.245974 42 38 33
-0.948415 0.850685 2.653960 25 24 20
-0.935587 0.843021 2.630050 25 24 20
-0.931303 0.843021 2.630050 26 26 24
-0.931214 0.846835 2.641951 26 26 26
-0.939666 0.858489 2.678308 24 24 22
-0.966333 0.886970 2.767162 24 24 22
-1.931642 2.430528 7.582743 133 125 120
-1.894685 2.399367 7.485528 133 125 120
-1.882492 2.399367 7.485528 133 125 120
-1.870300 2.399367 7.485528 132 124 119
-1.907005 2.462508 7.682516 134 126 121
-1.972347 2.563707 7.998235 135 125 121
-2.918986 3.819401 11.915738 135 125 122
-2.334863 3.226735 10.066745 140 132 127
-2.318466 3.226735 10.066745 140 132 127
-2.302069 3.226735 10.066745 140 132 127
-3.012931 4.253424 13.269799 142 134 129
-8.226121 11.696915 36.491947 144 136 131
-7.100768 10.397258 32.437286 145 137 132
-7.047933 10.397258 32.437286 145 137 133
-10.492647 15.595887 48.655930 146 138 133
-7.760098 12.476709 38.924744 151 143 139
-6.413913 10.397258 32.437286 152 142 139
-7.156213 11.696915 36.491947 151 143 138
-7.096774 11.696915 36.491947 152 144 139
-7.506490 12.476709 38.924744 153 145 140
-9.303860 15.595887 48.655930 154 146 142
-10.063208 17.013695 53.079197 153 145 141
-5.529233 13.367903 41.705086 157 153 152
-5.097215 12.476709 38.924744 157 153 150
-4.719200 11.696915 36.491947 157 153 150
-2.570902 6.453470 20.133490 158 154 151
-2.453505 6.238355 19.462372 158 154 151
-2.505314 6.453470 20.133490 158 154 151
-3.259231 8.506847 26.539598 159 155 152
-3.930669 10.397258 32.437286 159 155 154
0.170512 0.151416 0.472388 38 45 49
0.171420 0.151539 0.472770 37 46 51
0.173031 0.152279 0.475078 38 49 53
-0.279155 0.202696 0.629172 36 36 36
-0.278130 0.202696 0.629172 36 36 36
-0.277105 0.202696 0.629172 34 34 34
-0.278179 0.204236 0.633954 33 33 33
-0.280189 0.206478 0.640912 34 34 34
-0.284771 0.210640 0.653831 34 34 32
-0.338863 0.258381 0.802021 34 34 32
-0.337557 0.258381 0.802021 32 34 31
-0.337177 0.259093 0.804230 31 32 32
-0.339609 0.261980 0.813191 30 31 31
-0.351503 0.272217 0.844966 29 30 32
-0.325764 0.257321 0.798729 29 33 34
-0.323577 0.256619 0.796550 29 33 34
-0.322280 0.256619 0.796550 31 35 36
-0.625745 0.500270 1.552849 32 36 37
-0.647318 0.519618 1.612904 38 39 41
-0.657403 0.529864 1.644708 40 41 44
-0.658434 0.532866 1.654026 44 45 48
-0.665161 0.540522 1.677791 51 52 55
-0.666257 0.543646 1.687489 63 64 67
-0.677209 0.554872 1.722334 80 79 83
-0.929273 0.767762 2.383148 98 96 95
-0.929184 0.770908 2.392915 100 99 95
-0.921510 0.767762 2.383148 104 101 94
-0.913898 0.764641 2.373460 103 98 92
-0.910032 0.764641 2.373460 104 99 93
-0.906166 0.764641 2.373460 108 100 95
-0.902300 0.764641 2.373460 107 99 94
-0.902101 0.767762 2.383148 108 100 95
-0.916932 0.783757 2.432796 107 102 96
-0.924526 0.793678 2.463592 106 101 95
-1.864629 1.607707 4.990352 106 101 95
-2.496674 2.162088 6.711163 107 102 96
-2.962460 2.576735 7.998235 106 103 96
-3.472718 3.033898 9.417277 104 101 94
-3.572625 3.135028 9.731186 103 104 96
-4.268129 3.762033 11.677423 107 104 97
-4.721232 4.180037 12.974916 106 102 97
-6.042984 5.374333 16.682034 99 94 89
-6.579793 5.878177 18.245974 73 68 63
-6.550074 5.878177 18.245974 41 37 32
-6.520354 5.878177 18.245974 24 23 19
-0.927233 0.839740 2.606568 26 25 21
-0.922988 0.839740 2.606568 27 27 25
-0.927019 0.847305 2.630050 25 25 25
-0.935375 0.858912 2.666078 25 25 25
-0.966333 0.891477 2.767162 24 24 24
-1.906878 2.411560 7.485528 132 124 119
-1.894685 2.411560 7.485528 132 124 119
-1.882492 2.411560 7.485528 133 125 120
-1.894589 2.442879 7.582743 133 125 120
-1.932431 2.508022 7.784949 134 126 121
-1.972347 2.576735 7.998235 134 126 121
-13.002754 17.100151 53.079197 136 126 123
-2.923283 4.089167 12.692852 141 133 128
-2.902609 4.089167 12.692852 141 133 128
-3.012931 4.275038 13.269799 141 133 128
-8.226121 11.756354 36.491947 143 135 130
-7.988364 11.756354 36.491947 143 135 130
-7.928925 11.756354 36.491947 145 137 132
-10.492647 15.675139 48.655930 146 138 133
-11.640146 18.810167 58.387119 151 143 139
-7.696696 12.540112 38.924744 150 142 137
-7.156213 11.756354 36.491947 151 143 138
-7.096774 11.756354 36.491947 152 144 139
-9.383112 15.675139 48.655930 152 144 140
-9.303860 15.675139 48.655930 154 144 141
-10.063208 17.100151 53.079197 153 145 141
-4.385657 11.064804 34.345364 158 154 151
-2.538108 6.486265 20.133490 158 154 151
-3.302459 8.550076 26.539598 159 155 152
-3.983504 10.450092 32.437286 160 156 153
-4.422003 11.756354 36.491947 159 155 154
-0.279940 0.205046 0.633266 34 34 34
-0.278909 0.205046 0.633266 33 33 33
-0.278481 0.205492 0.634643 31 32 32
-0.280189 0.207522 0.640912 32 33 33
-0.284771 0.211705 0.653831 34 34 34
-0.339797 0.260403 0.804230 33 33 31
-0.338487 0.260403 0.804230 32 33 33
-0.337177 0.260403 0.804230 31 32 32
-0.339609 0.263305 0.813191 31 32 32
-0.344035 0.267780 0.827013 30 31 33
-0.325764 0.258622 0.798729 29 33 34
-0.323577 0.257916 0.796550 30 34 35
-0.322280 0.257916 0.796550 33 34 36
-0.321861 0.258622 0.798729 33 34 36
-0.643761 0.519376 1.604042 36 37 39
-0.657403 0.532543 1.644708 38 39 41
-0.658434 0.535560 1.654026 42 43 46
-0.944670 0.787720 2.432796 98 97 93
-0.936804 0.784451 2.422702 101 100 94
-0.921389 0.774806 2.392915 104 101 94
-0.910032 0.768507 2.373460 105 100 94
-0.909864 0.771644 2.383148 106 101 96
-0.905983 0.771644 2.383148 106 101 96
-0.905798 0.774806 2.392915 106 101 95
-0.916932 0.787720 2.432796 107 102 96
-0.924526 0.797691 2.463592 106 101 95
-2.138839 1.853458 5.724227 106 101 95
-3.949284 3.437322 10.615840 106 103 96
-4.325191 3.781054 11.677423 104 103 96
-4.306171 3.781054 11.677423 103 102 95
-4.287150 3.781054 11.677423 102 103 95
-4.639271 4.109841 12.692852 106 103 96
-5.311386 4.726317 14.596780 106 102 97
-6.609513 5.907897 18.245974 99 94 89
-6.579793 5.907897 18.245974 40 36 31
-6.550074 5.907897 18.245974 25 24 20
-6.520354 5.907897 18.245974 27 25 24
-0.927233 0.843985 2.606568 26 26 24
-0.922988 0.843985 2.606568 24 23 26
-0.918742 0.843985 2.606568 24 23 26
-0.926910 0.855442 2.641951 24 23 26
-0.966333 0.895984 2.767162 24 24 24
-1.906878 2.423753 7.485528 133 123 119
-1.894685 2.423753 7.485528 132 124 119
-1.882492 2.423753 7.485528 133 125 120
-1.919518 2.487535 7.682516 133 125 120
-1.932431 2.520703 7.784949 134 126 121
-2.056876 2.700753 8.341017 134 126 121
-14.303029 18.905270 58.387119 136 126 123
-3.279781 4.611042 14.240761 141 131 127
-3.256585 4.611042 14.240761 141 131 127
-3.899087 5.560373 17.172682 140 132 127
-7.742232 11.120747 34.345364 142 134 129
-10.651152 15.754392 48.655930 143 135 130
-10.571899 15.754392 48.655930 144 136 131
-10.492647 15.754392 48.655930 145 137 132
-11.545044 18.905270 58.387119 150 142 137
-8.807647 14.542516 44.913166 151 143 138
-8.734490 14.542516 44.913166 152 144 140
-9.383112 15.754392 48.655930 152 142 139
-9.303860 15.754392 48.655930 153 143 140
-9.224607 15.754392 48.655930 152 143 142
-12.193807 21.005856 64.874573 152 143 142
-4.600321 11.815794 36.491947 157 153 150
-4.540882 11.815794 36.491947 158 154 151
-4.481442 11.815794 36.491947 159 155 152
-0.279940 0.206078 0.633266 34 34 34
-0.278909 0.206078 0.633266 33 34 34
-0.278481 0.206526 0.634643 32 33 33
-0.280496 0.208795 0.641617 32 33 33
-0.286053 0.213727 0.656773 32 33 33
-0.339797 0.261713 0.804230 32 32 32
-0.338487 0.261713 0.804230 32 32 32
-0.337177 0.261713 0.804230 31 32 32
-0.339609 0.264629 0.813191 31 32 32
-0.344035 0.269127 0.827013 30 31 31
-0.325764 0.259923 0.798729 32 33 35
-0.324463 0.259923 0.798729 32 33 35
-0.322280 0.259214 0.796550 32 33 35
-0.320982 0.259214 0.796550 32 33 35
-0.631615 0.512139 1.573777 35 36 39
-0.657403 0.535222 1.644708 36 37 40
-0.990219 0.833350 2.560838 98 97 93
-0.932858 0.788397 2.422702 104 101 94
-0.917491 0.778704 2.392915 104 100 95
-0.913593 0.778704 2.392915 106 101 96
-0.921020 0.788397 2.422702 105 100 95
-0.917073 0.788397 2.422702 104 101 94
-0.928539 0.801704 2.463592 106 101 95
-0.995967 0.863653 2.653960 105 100 94
-4.784634 4.222305 12.974916 103 102 95
-4.763500 4.222305 12.974916 105 102 95
-4.742366 4.222305 12.974916 105 101 96
-5.901540 5.277881 16.218643 98 94 89
-6.609513 5.937616 18.245974 72 68 63
-7.018446 6.333457 19.462372 41 37 32
-6.986745 6.333457 19.462372 25 24 20
-6.520354 5.937616 18.245974 27 25 24
-0.927233 0.848231 2.606568 26 24 25
-0.922988 0.848231 2.606568 24 23 26
-0.918742 0.848231 2.606568 24 23 26
-0.926910 0.859745 2.641951 25 24 27
-2.138393 2.714339 8.341017 132 124 119
-1.957059 2.500049 7.682516 132 124 119
-1.919291 2.467581 7.582743 132 124 119
-1.932032 2.500049 7.682516 132 124 119
-1.945112 2.533383 7.784949 133 125 120
-2.070462 2.714339 8.341017 134 126 121
-2.117372 2.794173 8.586341 134 126 121
-5.846566 8.261032 25.385704 139 129 125
-5.805217 8.261032 25.385704 139 129 125
-7.364943 10.555762 32.437286 141 131 127
-7.742232 11.176690 34.345364 142 134 129
-9.831832 14.615671 44.913166 143 135 131
-9.758677 14.615671 44.913166 145 137 133
-9.685520 14.615671 44.913166 146 138 133
-12.722157 21.111525 64.874573 150 142 138
-12.616487 21.111525 64.874573 151 143 139
-9.383112 15.833644 48.655930 152 142 139
-9.303860 15.833644 48.655930 152 142 141
-9.224607 15.833644 48.655930 152 142 141
-9.145355 15.833644 48.655930 152 143 144
-12.088137 21.111525 64.874573 149 143 143
-0.280854 0.207785 0.635333 33 33 33
-0.279819 0.207785 0.635333 32 33 33
-0.278784 0.207785 0.635333 31 32 32
-0.284879 0.213119 0.651642 31 32 32
-0.343105 0.265584 0.812060 32 32 32
-0.341308 0.265215 0.810932 32 32 32
-0.339987 0.265215 0.810932 32 33 33
-0.339609 0.265954 0.813191 31 32 32
-0.351503 0.276346 0.844966 30 31 31
-0.326210 0.261582 0.799824 31 32 34
-0.324019 0.260867 0.797638 31 32 34
-0.321841 0.260156 0.795465 33 34 36
-0.320545 0.260156 0.795465 33 34 36
-0.623216 0.507858 1.552849 34 35 38
-1.035642 0.875939 2.678308 98 97 93
-0.986048 0.837521 2.560838 100 99 95
-0.932783 0.795645 2.432796 104 100 97
-0.928820 0.795645 2.432796 103 99 96
-0.924857 0.795645 2.432796 103 99 94
-0.932552 0.805716 2.463592 104 101 94
-0.965192 0.837521 2.560838 104 101 94
-5.358938 4.773869 14.596780 104 101 94
-5.335162 4.773869 14.596780 105 101 96
-5.901540 5.304299 16.218643 98 94 89
-6.609513 5.967336 18.245974 73 69 64
-6.792045 6.159831 18.834555 41 37 32
-6.761366 6.159831 18.834555 25 24 20
-0.931479 0.852477 2.606568 26 24 23
-0.919028 0.844933 2.583501 26 24 25
-0.910790 0.841210 2.572120 23 23 23
-0.910612 0.844933 2.583501 24 23 26
-0.918597 0.856299 2.618256 25 24 27
-2.138393 2.727925 8.341017 131 123 118
-1.983153 2.546063 7.784949 131 123 118
-1.970473 2.546063 7.784949 131 123 118
-1.957792 2.546063 7.784949 131 123 118
-2.084048 2.727925 8.341017 132 124 120
-2.131358 2.808158 8.586341 131 123 119
-2.215097 2.937766 8.982634 133 125 121
-8.964735 12.730317 38.924744 139 129 125
-7.854117 11.232633 34.345364 140 130 126
-7.798174 11.232633 34.345364 141 131 127
-7.742232 11.232633 34.345364 142 134 129
-9.831832 14.688828 44.913166 142 134 130
-9.758677 14.688828 44.913166 145 137 133
-9.685520 14.688828 44.913166 146 138 134
-9.303860 15.912896 48.655930 152 142 141
-9.224607 15.912896 48.655930 152 143 144
-9.145355 15.912896 48.655930 149 143 143
-10.879323 19.095476 58.387119 149 143 145
3.861635 19.095476 58.387119 159 159 159
3.597034 17.359524 53.079197 161 161 161
4.051841 19.095476 58.387119 161 161 161
-0.283521 0.211583 0.643739 35 35 35
-0.282473 0.211583 0.643739 34 35 35
-0.341782 0.266907 0.812060 33 33 33
-0.340460 0.266907 0.812060 32 33 33
-0.344893 0.271437 0.825843 32 33 33
-0.326210 0.262885 0.799824 30 31 33
-0.323577 0.261809 0.796550 30 31 31
-0.321841 0.261452 0.795465 31 32 34
-0.320545 0.261452 0.795465 32 33 35
-0.618283 0.506348 1.540557 34 35 37
-1.031279 0.880302 2.678308 101 100 96
-0.981876 0.841692 2.560838 101 100 96
-0.977705 0.841692 2.560838 102 98 95
-0.973534 0.841692 2.560838 103 99 94
-1.004612 0.872299 2.653960 104 100 95
-1.014118 0.884358 2.690651 104 100 95
-5.954375 5.330716 16.218643 105 101 96
-5.927958 5.330716 16.218643 105 101 96
-5.901540 5.330716 16.218643 98 94 89
-6.609513 5.997056 18.245974 74 70 65
-6.579793 5.997056 18.245974 41 40 36
-6.550074 5.997056 18.245974 24 24 22
-0.923236 0.849141 2.583501 26 26 24
-0.906988 0.838017 2.549656 26 26 26
-0.902835 0.838017 2.549656 24 24 24
-0.906600 0.845400 2.572120 24 24 24
-0.918597 0.860564 2.618256 25 24 27
-2.201287 2.822144 8.586341 132 124 119
-2.124807 2.741511 8.341017 131 123 118
-2.111221 2.741511 8.341017 131 123 118
-2.128035 2.781243 8.461901 130 122 117
-2.145344 2.822144 8.586341 131 123 119
-2.229728 2.952397 8.982634 131 123 119
-9.028137 12.793719 38.924744 140 129 125
-8.404439 11.994112 36.491947 139 129 125
-8.345000 11.994112 36.491947 139 129 125
-8.285561 11.994112 36.491947 141 133 128
-10.968162 15.992149 48.655930 141 133 128
-7.988364 11.994112 36.491947 144 136 132
-7.928925 11.994112 36.491947 144 136 132
-8.993697 13.707557 41.705086 144 136 132
1.349146 17.445980 53.079197 160 160 160
1.315970 15.992149 48.655930 159 159 159
1.522061 17.445980 53.079197 160 160 160
1.769370 19.190578 58.387119 160 160 160
3.861635 19.190578 58.387119 159 159 159
3.597034 17.445980 53.079197 161 161 161
4.051841 19.190578 58.387119 161 161 161
0.104119 0.110227 0.335365 33 42 45
0.104665 0.110227 0.335365 34 44 44
-0.354255 0.279098 0.844966 30 32 29
-0.328007 0.265643 0.804230 29 30 30
-0.324463 0.263826 0.798729 30 31 31
-0.322720 0.263466 0.797638 31 32 32
-0.321421 0.263466 0.797638 32 33 35
-0.618283 0.508857 1.540557 33 34 36
-1.031279 0.884664 2.678308 99 97 96
-1.026917 0.884664 2.678308 101 100 96
-1.022554 0.884664 2.678308 100 99 95
-1.018191 0.884664 2.678308 103 99 96
-1.018501 0.888741 2.690651 103 99 94
-1.028335 0.901200 2.728370 103 99 94
-5.793446 5.212347 15.780302 106 102 97
-5.767743 5.212347 15.780302 105 101 96
-5.742039 5.212347 15.780302 98 94 89
-6.220718 5.672259 17.172682 74 70 65
-6.192747 5.672259 17.172682 43 39 36
-6.164775 5.672259 17.172682 26 24 23
-0.911141 0.842170 2.549656 27 25 26
-0.891418 0.827712 2.505885 27 27 27
-0.887336 0.827712 2.505885 25 25 25
-0.894775 0.838508 2.538570 25 25 25
-0.918597 0.864829 2.618256 24 24 24
-2.324007 3.013388 9.122987 131 123 118
-2.173315 2.836130 8.586341 131 123 118
-2.258991 2.967028 8.982634 131 123 118
-2.279428 3.013388 9.122987 130 122 118
-11.522928 16.071402 48.655930 138 128 124
-9.808866 13.775487 41.705086 138 128 124
-8.523318 12.053551 36.491947 138 128 124
-8.463879 12.053551 36.491947 139 129 125
-8.404439 12.053551 36.491947 138 130 125
-8.345000 12.053551 36.491947 139 131 126
-8.837931 12.857121 38.924744 140 132 127
-9.129559 13.775487 41.705086 144 136 132
-9.061628 13.775487 41.705086 144 136 132
-8.993697 13.775487 41.705086 144 136 132
1.068429 14.835140 44.913166 160 160 160
1.141585 14.835140 44.913166 158 158 158
1.214741 14.835140 44.913166 158 158 158
1.395222 16.071402 48.655930 159 159 159
1.608518 17.532438 53.079197 159 159 159
3.597034 17.532438 53.079197 160 160 160
4.051841 19.285683 58.387119 162 162 162
0.103394 0.110583 0.334789 32 41 44
0.103940 0.110583 0.334789 33 42 45
0.104605 0.110710 0.335173 33 43 43
0.105211 0.110774 0.335365 32 43 43
-0.328007 0.266953 0.804230 26 27 27
-0.324907 0.265490 0.799824 26 27 27
-0.323162 0.265127 0.798729 27 28 28
-0.322302 0.265490 0.799824 27 28 28
-1.031279 0.889027 2.678308 93 91 92
-1.026917 0.889027 2.678308 101 99 98
-1.022554 0.889027 2.678308 101 100 96
-1.018191 0.889027 2.678308 103 99 96
-1.018501 0.893124 2.690651 102 98 93
-1.028335 0.905644 2.728370 101 97 92
-1.063654 0.940815 2.834326 103 99 94
-4.784634 4.306841 12.974916 103 99 94
-4.763500 4.306841 12.974916 105 101 96
-4.962941 4.507159 13.578400 105 101 96
-5.447576 4.969432 14.971056 99 94 89
-5.716336 5.238050 15.780302 75 70 65
-5.690632 5.238050 15.780302 43 39 36
-5.664928 5.238050 15.780302 27 23 22
-0.887878 0.824714 2.484558 26 24 25
-0.872690 0.814319 2.453240 27 25 26
-0.868694 0.814319 2.453240 25 24 27
-0.875737 0.824714 2.484558 25 25 25
-9.218343 12.920523 38.924744 135 127 122
-8.582757 12.112990 36.491947 137 127 123
-8.523318 12.112990 36.491947 138 128 124
-8.463879 12.112990 36.491947 138 130 125
-8.404439 12.112990 36.491947 138 130 125
-8.901333 12.920523 38.924744 138 130 125
-8.837931 12.920523 38.924744 138 130 125
-9.831832 14.908296 44.913166 144 136 132
-9.758677 14.908296 44.913166 144 136 132
-9.685520 14.908296 44.913166 144 136 132
-2.866512 6.921709 20.852543 157 153 152
-2.203092 5.383551 16.218643 156 152 151
-2.176675 5.383551 16.218643 155 151 150
-2.764616 6.921709 20.852543 157 153 152
-3.258558 12.920523 38.924744 160 154 154
-3.195156 12.920523 38.924744 159 155 154
0.995273 14.908296 44.913166 160 160 160
1.068429 14.908296 44.913166 159 159 159
1.141585 14.908296 44.913166 157 157 157
1.214741 14.908296 44.913166 158 158 158
1.287898 14.908296 44.913166 159 159 159
1.474475 16.150654 48.655930 158 158 158
0.102790 0.111065 0.334597 32 39 43
0.103335 0.111065 0.334597 31 40 43
0.103880 0.111065 0.334597 33 43 43
0.104485 0.111128 0.334789 33 43 43
0.105211 0.111320 0.335365 32 43 43
0.106246 0.111834 0.336914 33 44 44
-4.879271 3.974671 11.915738 34 34 34
-0.328460 0.268633 0.805340 33 33 33
-0.325353 0.267159 0.800921 32 34 31
-0.323604 0.266793 0.799824 33 35 32
-0.322744 0.267159 0.800921 32 33 33
-1.031279 0.893389 2.678308 80 78 79
-1.026917 0.893389 2.678308 102 98 97
-1.022554 0.893389 2.678308 105 101 98
-1.018191 0.893389 2.678308 105 101 96
-1.018501 0.897506 2.690651 104 100 95
-1.028335 0.910088 2.728370 103 99 94
-1.043394 0.927423 2.780339 104 100 95
-2.796944 2.496909 7.485528 106 102 97
-4.394052 3.974671 11.915738 106 101 96
-4.465781 4.057477 12.163982 104 100 95
-4.742366 4.327975 12.974916 103 99 94
-4.940825 4.529276 13.578400 98 93 88
-5.423190 4.993817 14.971056 75 70 65
-5.398805 4.993817 14.971056 42 38 35
-4.874474 4.529276 13.578400 24 22 21
-0.876686 0.818315 2.453240 26 24 25
-0.865418 0.811495 2.432796 27 25 26
-0.861455 0.811495 2.432796 24 23 26
-0.864698 0.818315 2.453240 23 23 23
-9.218343 12.983925 38.924744 134 126 121
-8.582757 12.172430 36.491947 136 128 123
-8.523318 12.172430 36.491947 137 129 124
-8.463879 12.172430 36.491947 137 129 124
-8.964735 12.983925 38.924744 137 129 124
-8.901333 12.983925 38.924744 137 129 124
-8.837931 12.983925 38.924744 138 130 125
-2.255927 5.409969 16.218643 156 152 151
-2.006559 4.868972 14.596780 156 152 151
-1.844449 4.529276 13.578400 155 151 150
-1.911227 4.750216 14.240761 156 152 151
-1.888031 4.750216 14.240761 157 153 152
-2.123840 5.409969 16.218643 157 153 152
-2.288097 5.901784 17.693066 157 153 152
-2.329880 6.086215 18.245974 156 152 151
-2.300161 6.086215 18.245974 156 152 151
-2.622600 10.250467 30.730062 160 154 154
-1.879937 7.490726 22.456583 160 154 154
-1.775087 7.213292 21.624859 160 154 154
-1.739863 7.213292 21.624859 160 156 155
-5.113920 21.639875 64.874573 161 155 155
-0.427584 16.229906 48.655930 161 156 158
-0.199047 9.274232 27.803389 161 156 158
-0.161448 9.737944 29.193560 161 156 158
0.922117 14.981452 44.913166 159 157 158
0.995273 14.981452 44.913166 159 159 159
1.068429 14.981452 44.913166 159 159 159
1.141585 14.981452 44.913166 158 158 158
1.214741 14.981452 44.913166 158 158 158
1.287898 14.981452 44.913166 159 159 159
1.474475 16.229906 48.655930 159 159 159
0.102894 0.112318 0.336719 33 40 44
0.102731 0.111546 0.334405 32 39 45
0.103276 0.111546 0.334405 31 40 43
0.103821 0.111546 0.334405 33 43 43
0.104485 0.111674 0.334789 33 43 43
0.105151 0.111802 0.335173 33 43 43
0.105940 0.112059 0.335944 35 45 45
-4.898680 3.994080 11.915738 61 61 61
-4.781685 3.914198 11.677423 60 60 60
-0.328460 0.269945 0.805340 60 60 58
-0.326697 0.269573 0.804230 60 60 58
-0.325387 0.269573 0.804230 58 60 57
-0.324077 0.269573 0.804230 57 59 56
-1.031279 0.897752 2.678308 74 72 73
-1.026917 0.897752 2.678308 94 90 89
-1.022554 0.897752 2.678308 100 96 93
-1.018191 0.897752 2.678308 100 96 91
-1.018501 0.901889 2.690651 101 96 91
-1.023552 0.910279 2.715680 102 97 91
-1.043394 0.931952 2.780339 103 98 93
-2.058129 1.846320 5.508219 102 98 93
-2.715132 2.446374 7.298390 100 96 91
-3.379056 3.057967 9.122987 102 97 92
-3.588476 3.261832 9.731186 104 99 94
-4.044481 3.692640 11.016438 106 102 97
-4.355234 3.994080 11.915738 105 101 96
-4.520329 4.164041 12.422791 99 94 89
-4.918707 4.551393 13.578400 76 72 67
-4.896590 4.551393 13.578400 43 39 34
-0.888146 0.829279 2.474030 26 25 21
-0.855128 0.802090 2.392915 27 27 27
-0.847756 0.798816 2.383148 26 25 28
-0.847333 0.802090 2.392915 25 24 27
-0.857493 0.815458 2.432796 25 25 25
-11.443676 16.309158 48.655930 135 127 122
-8.523318 12.231869 36.491947 137 129 124
-9.028137 13.047327 38.924744 137 129 124
-8.964735 13.047327 38.924744 138 130 125
-8.901333 13.047327 38.924744 138 130 125
-9.469212 13.979279 41.705086 140 132 127
-1.786183 4.254563 12.692852 156 152 151
-1.765508 4.254563 12.692852 157 153 152
-1.744834 4.254563 12.692852 156 152 151
-1.724159 4.254563 12.692852 155 151 150
-1.703484 4.254563 12.692852 155 149 149
-1.720206 4.349109 12.974916 157 153 152
-1.737687 4.447952 13.269799 157 153 152
-1.841639 4.773412 14.240761 156 152 151
-2.130176 5.591712 16.682034 155 151 150
-2.230459 5.930603 17.693066 155 151 150
-2.270441 6.115934 18.245974 157 153 152
-1.973244 6.115934 18.245974 158 152 152
-2.961561 9.319519 27.803389 158 152 152
-4.082784 13.047327 38.924744 158 152 152
-2.622600 10.300522 30.730062 160 154 154
-1.810310 7.248515 21.624859 160 154 154
-1.775087 7.248515 21.624859 160 154 154
-1.739863 7.248515 21.624859 160 154 154
-1.704640 7.248515 21.624859 161 155 155
-5.008250 21.745544 64.874573 161 155 155
-3.556396 19.570992 58.387119 161 155 155
-3.461293 19.570992 58.387119 161 155 155
-0.342067 13.047327 38.924744 162 157 159
-0.199047 9.319519 27.803389 161 156 158
-0.161448 9.785496 29.193560 161 156 158
-0.142370 12.231869 36.491947 162 157 159
1.103649 19.570992 58.387119 158 158 158
0.922117 15.054608 44.913166 158 158 158
0.995273 15.054608 44.913166 159 159 159
1.068429 15.054608 44.913166 159 159 159
1.141585 15.054608 44.913166 158 158 158
1.214741 15.054608 44.913166 158 158 158
1.395222 16.309158 48.655930 159 159 159
1.474475 16.309158 48.655930 158 158 158
0.102582 0.113127 0.337498 33 43 43
0.102894 0.112866 0.336719 32 42 42
0.102731 0.112090 0.334405 32 39 43
0.103276 0.112090 0.334405 31 41 41
0.103821 0.112090 0.334405 33 43 43
0.104485 0.112219 0.334789 33 43 43
0.105091 0.112283 0.334981 33 43 43
0.105758 0.112412 0.335365 34 44 44
1.768645 1.578306 4.708639 33 43 43
1.776314 1.578306 4.708639 32 42 42
1.874695 1.658558 4.948061 31 41 41
-4.838747 3.933219 11.677423 0 0 0
-4.819726 3.933219 11.677423 0 0 0
-4.616064 3.781941 11.228292 0 0 0
-4.597775 3.781941 11.228292 0 0 0
-3.968887 3.277682 9.731186 0 0 0
-0.326697 0.270883 0.804230 0 0 0
-0.325387 0.270883 0.804230 0 0 0
-0.324077 0.270883 0.804230 0 0 0
-1.069999 0.932042 2.767162 75 74 77
-1.040828 0.910467 2.703107 83 83 83
-1.026917 0.902114 2.678308 87 85 84
-1.022554 0.902114 2.678308 95 94 90
-1.018191 0.902114 2.678308 100 96 93
-1.018501 0.906272 2.690651 101 97 92
-1.023552 0.914702 2.715680 103 99 94
-1.043394 0.936481 2.780339 104 100 95
-2.020015 1.820935 5.406215 104 100 95
-2.310751 2.092138 6.211396 102 101 95
-2.772558 2.521294 7.485528 103 99 94
-3.213560 2.935238 8.714496 103 99 96
-3.402500 3.121602 9.267797 103 99 94
-4.026537 3.710584 11.016438 102 98 93
-4.426155 4.097103 12.163982 96 92 87
-4.406342 4.097103 12.163982 74 70 65
-4.386529 4.097103 12.163982 39 38 32
-0.873343 0.819421 2.432796 22 22 18
-0.844742 0.796198 2.363851 22 22 20
-0.834138 0.789803 2.344864 21 22 24
-0.837042 0.796198 2.363851 21 20 23
-0.843435 0.805987 2.392915 21 21 21
-11.205919 16.388411 48.655930 137 129 124
-10.270769 15.127765 44.913166 136 128 123
-11.047414 16.388411 48.655930 138 130 125
-11.965267 17.878267 53.079197 140 132 127
-1.768413 4.184275 12.422791 156 152 151
-1.748179 4.184275 12.422791 156 152 151
-1.727944 4.184275 12.422791 156 152 151
-1.744834 4.275238 12.692852 157 151 151
-1.687475 4.184275 12.422791 156 150 150
-1.703484 4.275238 12.692852 155 149 149
-1.682810 4.275238 12.692852 157 151 151
-1.662135 4.275238 12.692852 157 151 151
-1.716073 4.469567 13.269799 157 151 151
-1.911697 5.042588 14.971056 157 151 151
-2.230459 5.959422 17.693066 156 150 150
-2.270441 6.145654 18.245974 157 151 151
-2.390103 6.555365 19.462372 158 152 152
-1.831281 5.618884 16.682034 158 152 152
-1.804109 5.618884 16.682034 158 152 152
-1.884630 5.959422 17.693066 158 152 152
-2.041392 6.555365 19.462372 158 152 152
-3.768170 12.291308 36.491947 159 153 153
-2.622600 10.350575 30.730062 160 154 154
-1.810310 7.283738 21.624859 159 153 153
-1.775087 7.283738 21.624859 160 154 154
-1.739863 7.283738 21.624859 160 154 154
-1.704640 7.283738 21.624859 160 154 154
-1.733625 7.563882 22.456583 161 155 155
-3.319544 17.878267 53.079197 160 154 154
-3.233087 17.878267 53.079197 160 154 154
-3.461293 19.666094 58.387119 160 154 154
-1.376512 9.364806 27.803389 160 155 157
-1.397786 9.833047 29.193560 161 156 158
-1.687793 12.291308 36.491947 161 156 158
-0.427584 16.388411 48.655930 159 157 158
-0.245881 11.568291 34.345364 159 157 158
-0.189938 11.568291 34.345364 160 158 159
-0.151861 13.110729 38.924744 160 158 159
-0.120627 17.878267 53.079197 160 158 159
1.008546 19.666094 58.387119 159 159 159
0.788321 14.047210 41.705086 157 158 158
0.856252 14.047210 41.705086 158 158 158
0.924182 14.047210 41.705086 159 159 159
1.068429 15.127765 44.913166 159 159 159
1.141585 15.127765 44.913166 158 158 158
1.214741 15.127765 44.913166 158 158 158
1.522061 17.878267 53.079197 158 158 158
1.608518 17.878267 53.079197 158 158 158
0.102091 0.113743 0.337693 33 43 43
0.102345 0.113415 0.336719 32 42 42
0.102894 0.113415 0.336719 32 42 42
0.103085 0.113024 0.335558 32 42 42
0.103335 0.112700 0.334597 32 42 42
0.103880 0.112700 0.334597 32 42 42
0.104485 0.112764 0.334789 33 43 43
0.105091 0.112829 0.334981 33 43 43
0.105697 0.112894 0.335173 34 44 44
0.106487 0.113154 0.335944 34 44 44
1.753306 1.585975 4.708639 36 43 47
1.733023 1.560801 4.633898 34 44 44
1.726866 1.548511 4.597411 33 43 43
1.720805 1.536414 4.561493 32 42 41
1.741843 1.548511 4.597411 30 40 39
1.882755 1.666618 4.948061 30 40 39
-20.795465 16.467665 48.655930 0 0 0
-4.689219 3.800230 11.228292 0 0 0
-4.187731 3.407103 10.066745 0 0 0
-4.171334 3.407103 10.066745 0 0 0
-4.462710 3.659481 10.812429 0 0 0
-4.445098 3.659481 10.812429 0 0 0
-4.194461 3.466877 10.243354 0 0 0
-3.968887 3.293533 9.731186 0 0 0
-0.326697 0.272193 0.804230 0 0 0
-0.325387 0.272193 0.804230 0 0 0
-0.324077 0.272193 0.804230 0 0 0
-1.080239 0.945512 2.793642 0 0 0
-1.065492 0.936550 2.767162 0 0 0
-1.036425 0.914870 2.703107 95 95 93
-1.022554 0.906477 2.678308 105 105 101
-1.018191 0.906477 2.678308 111 111 107
-1.023216 0.914870 2.703107 115 114 108
-1.028335 0.923420 2.728370 118 117 111
-1.058515 0.954647 2.820634 117 116 112
-1.913698 1.733438 5.121677 117 116 112
-2.262610 2.058458 6.081991 117 117 113
-2.703244 2.470150 7.298390 117 117 113
-2.760366 2.533487 7.485528 117 116 112
-3.297808 3.040184 8.982634 119 118 112
-4.026537 3.728528 11.016438 105 101 96
-4.165793 3.874744 11.448455 98 94 89
-4.147145 3.874744 11.448455 75 74 68
-4.128498 3.874744 11.448455 44 43 37
-0.855520 0.806579 2.383148 28 28 24
-0.824709 0.781075 2.307791 27 27 25
-0.820950 0.781075 2.307791 26 26 26
-0.830318 0.793622 2.344864 26 26 26
-0.833191 0.800048 2.363851 26 26 26
-12.051724 17.964724 53.079197 138 130 125
-10.968162 16.467665 48.655930 140 132 127
-13.066690 19.761196 58.387119 140 132 127
-1.433025 3.407103 10.066745 156 152 151
-1.580085 3.800230 11.228292 156 152 151
-1.691945 4.116916 12.163982 156 152 151
-1.707709 4.204510 12.422791 156 150 150
-1.687475 4.204510 12.422791 155 149 149
-1.667240 4.204510 12.422791 155 149 149
-1.682810 4.295912 12.692852 156 150 150
-1.662135 4.295912 12.692852 157 151 151
-1.677938 4.391377 12.974916 157 151 151
-1.818443 4.819804 14.240761 156 150 150
-2.103004 5.646056 16.682034 156 150 150
-2.201640 5.988241 17.693066 157 151 151
-2.240721 6.175374 18.245974 158 152 152
-1.806830 5.489221 16.218643 158 152 152
-1.686706 5.200315 15.365031 158 152 152
-1.753995 5.489221 16.218643 158 152 152
-1.776937 5.646056 16.682034 158 152 152
-2.041392 6.587066 19.462372 158 152 152
-2.870987 9.410093 27.803389 158 152 152
-3.955980 13.174131 38.924744 158 152 152
-3.114337 12.350748 36.491947 160 154 154
-1.879937 7.600460 22.456583 162 153 154
-1.775087 7.318962 21.624859 159 153 153
-1.739863 7.318962 21.624859 159 153 153
-1.770203 7.600460 22.456583 162 153 154
-2.817141 12.350748 36.491947 160 154 154
-4.057220 21.956884 64.874573 160 154 154
-3.556396 19.761196 58.387119 160 154 154
-3.461293 19.761196 58.387119 160 154 154
-3.366190 19.761196 58.387119 161 155 155
-3.634541 21.956884 64.874573 161 155 155
-1.812283 11.624233 34.345364 161 155 155
-1.421799 9.410093 27.803389 160 155 157
-1.070620 7.318962 21.624859 161 156 158
-1.035397 7.318962 21.624859 161 156 158
-1.038642 7.600460 22.456583 161 156 158
-1.628354 12.350748 36.491947 161 156 158
-0.513101 19.761196 58.387119 159 157 158
-0.348332 16.467665 48.655930 159 157 158
-0.248381 15.200920 44.913166 158 156 157
-0.207084 17.964724 53.079197 159 157 158
-0.132689 19.761196 58.387119 159 157 158
1.008546 19.761196 58.387119 158 158 158
1.003317 17.964724 53.079197 157 158 158
0.922117 15.200920 44.913166 158 158 158
0.995273 15.200920 44.913166 159 159 159
1.068429 15.200920 44.913166 159 159 159
1.141585 15.200920 44.913166 157 157 157
1.315970 16.467665 48.655930 157 157 157
1.522061 17.964724 53.079197 157 157 157
1.608518 17.964724 53.079197 157 157 157
0.079184 0.098168 0.290050 29 39 39
0.079656 0.098168 0.290050 29 39 39
0.101050 0.114359 0.337888 32 42 42
0.101248 0.113963 0.336719 32 42 42
0.101797 0.113963 0.336719 32 42 42
0.102345 0.113963 0.336719 32 42 42
0.102894 0.113963 0.336719 32 42 42
0.103442 0.113963 0.336719 32 42 42
0.103454 0.113375 0.334981 32 42 42
0.103999 0.113375 0.334981 32 42 42
0.104545 0.113375 0.334981 33 43 43
0.105151 0.113440 0.335173 33 43 43
0.105697 0.113440 0.335173 34 44 44
0.106426 0.113635 0.335751 34 44 44
1.668795 1.543844 4.561493 38 49 49
1.702832 1.568349 4.633898 38 49 51
1.724063 1.580896 4.670969 37 46 49
1.745636 1.593645 4.708639 35 44 47
1.753306 1.593645 4.708639 34 43 46
1.733023 1.568349 4.633898 31 40 43
1.713375 1.543844 4.561493 32 42 42
1.720805 1.543844 4.561493 32 42 41
1.728235 1.543844 4.561493 30 40 39
1.791654 1.593645 4.708639 29 39 38
2.028328 1.796472 5.307920 30 38 38
-17.892614 14.183071 41.705086 0 0 0
-17.824684 14.183071 41.705086 0 0 0
-17.756754 14.183071 41.705086 0 0 0
-17.688824 14.183071 41.705086 0 0 0
-20.557709 16.546917 48.655930 0 0 0
-20.478455 16.546917 48.655930 0 0 0
-4.618688 3.746472 11.016438 0 0 0
-4.063990 3.309383 9.731186 0 0 0
-4.048140 3.309383 9.731186 0 0 0
-4.032290 3.309383 9.731186 0 0 0
-4.154937 3.423500 10.066745 0 0 0
-4.445098 3.677093 10.812429 0 0 0
-4.597775 3.818519 11.228292 0 0 0
-4.409875 3.677093 10.812429 0 0 0
-4.161091 3.483561 10.243354 0 0 0
-4.542907 3.818519 11.228292 0 0 0
-1.080239 0.950062 2.793642 0 0 0
-1.065492 0.941057 2.767162 0 0 0
-1.060985 0.941057 2.767162 0 0 0
-1.041667 0.927864 2.728370 0 0 0
-1.027619 0.919273 2.703107 0 0 0
-1.032779 0.927864 2.728370 0 0 0
-1.047922 0.945538 2.780339 0 0 0
-1.725296 1.563488 4.597411 0 0 0
-1.913698 1.741781 5.121677 0 0 0
-2.030005 1.855729 5.456740 0 0 0
-2.276417 2.090137 6.146012 0 0 0
-2.691357 2.482038 7.298390 0 0 0
-3.297808 3.054815 8.982634 0 0 0
-4.026537 3.746472 11.016438 119 118 112
-4.165793 3.893392 11.448455 111 110 106
-4.147145 3.893392 11.448455 92 91 85
-4.128498 3.893392 11.448455 66 67 60
-0.828468 0.784834 2.307791 54 55 48
-0.815044 0.775637 2.280747 53 53 51
-0.811329 0.775637 2.280747 52 52 52
-0.823702 0.791088 2.326180 50 50 50
-11.965267 18.051182 53.079197 139 131 126
-11.878810 18.051182 53.079197 139 131 126
-1.715642 4.052306 11.915738 153 149 148
-1.433025 3.423500 10.066745 154 150 149
-1.416628 3.423500 10.066745 156 150 150
-1.561796 3.818519 11.228292 156 150 150
-1.672132 4.136729 12.163982 156 150 150
-1.687475 4.224745 12.422791 155 149 149
-1.667240 4.224745 12.422791 154 148 148
-1.682810 4.316587 12.692852 156 150 150
-1.662135 4.316587 12.692852 157 151 151
-1.677938 4.412511 12.974916 157 151 151
-1.818443 4.843000 14.240761 157 151 151
-1.936977 5.225342 15.365031 157 151 151
-2.136885 5.840088 17.172682 158 152 152
-2.240721 6.205093 18.245974 158 152 152
-1.806830 5.515639 16.218643 158 152 152
-1.602371 4.964075 14.596780 158 152 152
-1.661679 5.225342 15.365031 158 152 152
-1.943524 6.205093 18.245974 158 152 152
-2.449670 7.942520 23.354847 158 152 152
-2.870987 9.455380 27.803389 158 152 152
-3.708731 12.410187 36.491947 159 153 153
-3.892578 13.237533 38.924744 159 153 153
-5.221603 18.051182 53.079197 160 154 154
-4.616403 18.051182 53.079197 162 153 154
-3.114337 12.410187 36.491947 162 153 154
-3.054898 12.410187 36.491947 162 153 154
-2.819255 11.680176 34.345364 162 153 154
-2.609795 11.031278 32.437286 162 153 154
-2.876580 12.410187 36.491947 162 153 154
-2.817141 12.410187 36.491947 163 154 155
-3.951551 22.062555 64.874573 160 154 154
-3.845881 22.062555 64.874573 160 154 154
-3.366190 19.856300 58.387119 161 155 155
-3.271087 19.856300 58.387119 161 155 155
-1.868226 11.680176 34.345364 161 155 155
-1.467086 9.455380 27.803389 161 155 157
-1.421799 9.455380 27.803389 160 155 157
-1.070620 7.354185 21.624859 161 156 158
-1.035397 7.354185 21.624859 161 156 158
-1.125195 8.273458 24.327965 161 156 158
-1.628354 12.410187 36.491947 161 156 158
-2.091886 16.546917 48.655930 161 156 158
-0.513101 19.856300 58.387119 159 157 158
-0.417998 19.856300 58.387119 159 157 158
-0.322895 19.856300 58.387119 159 157 158
-0.227792 19.856300 58.387119 159 157 158
0.913443 19.856300 58.387119 157 157 157
1.008546 19.856300 58.387119 157 157 157
1.003317 18.051182 53.079197 158 158 158
0.922117 15.274076 44.913166 158 158 158
0.995273 15.274076 44.913166 159 159 159
1.157465 16.546917 48.655930 159 159 159
1.236717 16.546917 48.655930 158 158 158
1.315970 16.546917 48.655930 157 157 157
1.522061 18.051182 53.079197 157 157 157
1.608518 18.051182 53.079197 156 156 156
0.078361 0.098201 0.288759 30 40 40
0.078831 0.098201 0.288759 29 39 39
0.079459 0.098396 0.289332 28 38 38
0.080089 0.098591 0.289906 28 38 38
0.100239 0.115243 0.338869 31 41 40
0.100499 0.114909 0.337888 32 42 41
0.100642 0.114446 0.336525 33 43 43
0.101073 0.114314 0.336138 33 43 43
0.101797 0.114512 0.336719 32 42 42
0.102345 0.114512 0.336719 32 42 42
0.103132 0.114776 0.337498 33 43 42
0.103442 0.114512 0.336719 32 42 42
0.103871 0.114380 0.336331 33 43 43
0.104059 0.113986 0.335173 32 42 42
0.104605 0.113986 0.335173 33 43 43
0.105151 0.113986 0.335173 33 43 43
0.105818 0.114117 0.335558 33 43 43
0.106733 0.114512 0.336719 33 43 43
1.653935 1.551273 4.561493 40 51 53
1.623319 1.515748 4.457032 38 49 51
1.630579 1.515748 4.457032 37 48 50
1.676225 1.551273 4.561493 36 47 49
1.710380 1.575897 4.633898 37 46 49
1.745636 1.601314 4.708639 34 43 46
1.753306 1.601314 4.708639 32 41 44
1.733023 1.575897 4.633898 31 40 43
1.713375 1.551273 4.561493 29 39 39
1.720805 1.551273 4.561493 29 39 39
1.728235 1.551273 4.561493 28 38 38
1.749331 1.563488 4.597411 28 38 37
-11.386209 9.068819 26.539598 0 0 0
-8.912342 7.125501 20.852543 0 0 0
-8.019179 6.435936 18.834555 0 0 0
-8.844412 7.125501 20.852543 0 0 0
-5.482056 4.433645 12.974916 0 0 0
-4.636631 3.764416 11.016438 0 0 0
-4.220525 3.439897 10.066745 0 0 0
-3.997367 3.270722 9.571659 0 0 0
-3.981777 3.270722 9.571659 0 0 0
-4.032290 3.325234 9.731186 0 0 0
-4.154937 3.439897 10.066745 0 0 0
-4.445098 3.694704 10.812429 0 0 0
-4.597775 3.836808 11.228292 0 0 0
-4.579485 3.836808 11.228292 0 0 0
-4.743644 3.990280 11.677423 0 0 0
-1.085432 0.959202 2.807073 0 0 0
-1.075688 0.954613 2.793642 0 0 0
-1.071138 0.954613 2.793642 0 0 0
-1.066587 0.954613 2.793642 0 0 0
-1.062037 0.954613 2.793642 0 0 0
-1.062571 0.959202 2.807073 0 0 0
-1.732785 1.570977 4.597411 0 0 0
-1.888902 1.719949 5.033372 0 0 0
-2.001483 1.830404 5.356616 0 0 0
-2.262610 2.078271 6.081991 0 0 0
-2.276417 2.100148 6.146012 0 0 0
-2.691357 2.493925 7.298390 0 0 0
-3.297808 3.069447 8.982634 0 0 0
-4.026537 3.764416 11.016438 0 0 0
-4.165793 3.912040 11.448455 0 0 0
-4.230088 3.990280 11.677423 0 0 0
-4.211068 3.990280 11.677423 0 0 0
-4.109850 3.912040 11.448455 0 0 0
-0.815044 0.779352 2.280747 0 0 0
-0.811329 0.779352 2.280747 0 0 0
-0.833666 0.804492 2.354319 0 0 0
-1.844121 2.168631 6.346426 131 122 121
-1.833784 2.168631 6.346426 132 122 121
-2.021169 2.403783 7.034593 132 122 121
-2.085075 2.493925 7.298390 132 122 121
-2.099430 2.525494 7.390774 131 122 123
-10.888909 16.626169 48.655930 140 132 127
-10.809656 16.626169 48.655930 140 132 127
-11.705895 18.137638 53.079197 140 132 127
-1.556786 3.694704 10.812429 154 148 148
-1.433025 3.439897 10.066745 155 149 149
-1.416628 3.439897 10.066745 155 149 149
-1.503951 3.694704 10.812429 155 149 149
-1.573771 3.912040 11.448455 155 149 149
-1.687475 4.244979 12.422791 155 149 149
-1.703484 4.337261 12.692852 155 149 149
-1.682810 4.337261 12.692852 156 150 150
-1.699072 4.433645 12.974916 156 150 150
-1.841639 4.866196 14.240761 156 150 150
-1.818443 4.866196 14.240761 155 149 149
-1.936977 5.250369 15.365031 156 150 150
-2.136885 5.868060 17.172682 156 150 150
-2.240721 6.234813 18.245974 157 151 151
-1.780412 5.542056 16.218643 158 152 152
-1.973244 6.234813 18.245974 158 152 152
-2.487711 7.980561 23.354847 158 152 152
-2.783716 9.068819 26.539598 157 151 151
-2.870987 9.500668 27.803389 157 151 151
-3.490570 11.736119 34.345364 158 152 152
-3.649292 12.469626 36.491947 158 152 152
-3.829176 13.300935 38.924744 158 152 152
-5.135146 18.137638 53.079197 159 153 153
-4.702860 18.137638 53.079197 162 153 154
-3.385362 13.300935 38.924744 162 153 154
-3.114337 12.469626 36.491947 162 153 154
-3.054898 12.469626 36.491947 163 152 154
-2.995459 12.469626 36.491947 162 153 154
-2.936019 12.469626 36.491947 162 153 154
-2.876580 12.469626 36.491947 162 153 154
-3.219589 14.251001 41.705086 163 154 155
-3.951551 22.168224 64.874573 160 154 156
-3.845881 22.168224 64.874573 160 154 156
-3.366190 19.951403 58.387119 160 154 154
