ply
format ascii 1.0
comment Created by Open3D
element vertex 1183
property double x
property double y
property double z
property uchar red
property uchar green
property uchar blue
end_header
-0.136116 0.011746 -0.72549 109 135 154
-0.118917 0.0101587 -0.627451 28 66 97
-0.120863 0.0102222 -0.631373 11 68 106
-0.122065 0.0102222 -0.631373 2 65 109
-0.124034 0.0102857 -0.635294 1 63 107
-0.125244 0.0102857 -0.635294 3 63 106
-0.126454 0.0102857 -0.635294 1 59 99
-0.127664 0.0102857 -0.635294 4 59 97
-0.128874 0.0102857 -0.635294 6 56 95
-0.130084 0.0102857 -0.635294 8 53 93
-0.131294 0.0102857 -0.635294 10 53 94
-0.132504 0.0102857 -0.635294 9 55 94
-0.133714 0.0102857 -0.635294 7 58 98
-0.134924 0.0102857 -0.635294 4 63 103
-0.136134 0.0102857 -0.635294 3 71 113
-0.137345 0.0102857 -0.635294 4 83 128
-0.138555 0.0102857 -0.635294 7 92 139
-0.139765 0.0102857 -0.635294 4 95 144
-0.140975 0.0102857 -0.635294 0 90 142
-0.142185 0.0102857 -0.635294 0 87 139
-0.143395 0.0102857 -0.635294 1 88 141
-0.143712 0.0102222 -0.631373 1 89 141
-0.144915 0.0102222 -0.631373 0 89 140
-0.146118 0.0102222 -0.631373 0 91 143
-0.14732 0.0102222 -0.631373 1 94 144
-0.148523 0.0102222 -0.631373 6 98 143
-0.149725 0.0102222 -0.631373 13 99 139
-0.150928 0.0102222 -0.631373 28 102 138
-0.153076 0.0102857 -0.635294 46 109 142
-0.154286 0.0102857 -0.635294 73 127 159
-0.154536 0.0102222 -0.631373 97 146 179
-0.154771 0.0101587 -0.627451 76 129 164
-0.154992 0.0100952 -0.623529 20 79 119
-0.155197 0.0100317 -0.619608 6 73 114
-0.156377 0.0100317 -0.619608 2 76 118
-0.157557 0.0100317 -0.619608 0 78 121
-0.158738 0.0100317 -0.619608 0 86 130
-0.159918 0.0100317 -0.619608 1 88 134
-0.160078 0.00996825 -0.615686 1 87 136
-0.161251 0.00996825 -0.615686 7 92 142
-0.162424 0.00996825 -0.615686 11 95 143
-0.163597 0.00996825 -0.615686 12 96 145
-0.164769 0.00996825 -0.615686 7 95 141
-0.165942 0.00996825 -0.615686 1 90 136
-0.16605 0.00990476 -0.611765 0 85 132
-0.167216 0.00990476 -0.611765 0 83 133
-0.168381 0.00990476 -0.611765 0 82 133
-0.169546 0.00990476 -0.611765 0 80 131
-0.170711 0.00990476 -0.611765 0 79 133
-0.171877 0.00990476 -0.611765 0 79 134
-0.173042 0.00990476 -0.611765 0 80 135
-0.174207 0.00990476 -0.611765 0 82 136
-0.175373 0.00990476 -0.611765 3 90 142
-0.176538 0.00990476 -0.611765 9 101 152
-0.177703 0.00990476 -0.611765 8 102 152
-0.178868 0.00990476 -0.611765 3 100 149
-0.180034 0.00990476 -0.611765 1 101 150
-0.181199 0.00990476 -0.611765 3 105 153
-0.182364 0.00990476 -0.611765 10 109 159
-0.183529 0.00990476 -0.611765 19 112 162
-0.184695 0.00990476 -0.611765 26 115 164
-0.18586 0.00990476 -0.611765 29 117 164
-0.187025 0.00990476 -0.611765 27 116 160
-0.18819 0.00990476 -0.611765 24 113 158
-0.19057 0.00996825 -0.615686 25 112 156
-0.191742 0.00996825 -0.615686 27 108 153
-0.192915 0.00996825 -0.615686 29 103 146
-0.195324 0.0100317 -0.619608 38 99 139
-0.196504 0.0100317 -0.619608 46 93 124
-0.173345 0.0136134 -0.952941 148 158 159
-0.174439 0.0135574 -0.94902 145 157 160
-0.17042 0.0131092 -0.917647 139 157 167
-0.136116 0.0103641 -0.72549 108 135 155
-0.118917 0.00896358 -0.627451 26 65 97
-0.120863 0.00901961 -0.631373 9 67 107
-0.122065 0.00901961 -0.631373 0 65 110
-0.124034 0.00907563 -0.635294 0 64 109
-0.125244 0.00907563 -0.635294 1 64 108
-0.126454 0.00907563 -0.635294 2 63 104
-0.127664 0.00907563 -0.635294 5 62 102
-0.128874 0.00907563 -0.635294 7 58 98
-0.130084 0.00907563 -0.635294 8 56 96
-0.131294 0.00907563 -0.635294 10 55 93
-0.132504 0.00907563 -0.635294 10 54 91
-0.133714 0.00907563 -0.635294 8 55 91
-0.134924 0.00907563 -0.635294 4 57 95
-0.136134 0.00907563 -0.635294 3 65 105
-0.137345 0.00907563 -0.635294 2 74 118
-0.138555 0.00907563 -0.635294 4 84 132
-0.139765 0.00907563 -0.635294 8 94 145
-0.140975 0.00907563 -0.635294 3 92 145
-0.141307 0.00901961 -0.631373 0 89 142
-0.14251 0.00901961 -0.631373 0 88 140
-0.143712 0.00901961 -0.631373 0 89 141
-0.144915 0.00901961 -0.631373 0 91 141
-0.146118 0.00901961 -0.631373 1 93 143
-0.14732 0.00901961 -0.631373 0 93 144
-0.148523 0.00901961 -0.631373 0 97 145
-0.148796 0.00896358 -0.627451 6 100 147
-0.149991 0.00896358 -0.627451 14 100 145
-0.151186 0.00896358 -0.627451 20 96 140
-0.152381 0.00896358 -0.627451 31 100 142
-0.152616 0.00890756 -0.623529 49 113 154
-0.153804 0.00890756 -0.623529 41 107 147
-0.154017 0.00885154 -0.619608 6 73 116
-0.155197 0.00885154 -0.619608 1 69 113
-0.156377 0.00885154 -0.619608 0 70 114
-0.157557 0.00885154 -0.619608 0 71 116
-0.157733 0.00879552 -0.615686 0 78 122
-0.158906 0.00879552 -0.615686 1 80 126
-0.160078 0.00879552 -0.615686 1 81 126
-0.161251 0.00879552 -0.615686 4 87 132
-0.162424 0.00879552 -0.615686 8 92 138
-0.163597 0.00879552 -0.615686 9 95 142
-0.164769 0.00879552 -0.615686 6 97 141
-0.164885 0.0087395 -0.611765 1 93 137
-0.16605 0.0087395 -0.611765 0 89 134
-0.167216 0.0087395 -0.611765 0 86 135
-0.168381 0.0087395 -0.611765 0 85 137
-0.169546 0.0087395 -0.611765 0 84 138
-0.170711 0.0087395 -0.611765 0 84 141
-0.171877 0.0087395 -0.611765 0 85 142
-0.173042 0.0087395 -0.611765 0 87 143
-0.174207 0.0087395 -0.611765 1 91 145
-0.175373 0.0087395 -0.611765 3 96 149
-0.176538 0.0087395 -0.611765 8 104 156
-0.177703 0.0087395 -0.611765 6 105 157
-0.178868 0.0087395 -0.611765 2 104 153
-0.180034 0.0087395 -0.611765 1 104 154
-0.181199 0.0087395 -0.611765 0 106 155
-0.182364 0.0087395 -0.611765 5 109 158
-0.183529 0.0087395 -0.611765 14 112 163
-0.184695 0.0087395 -0.611765 22 115 167
-0.18586 0.0087395 -0.611765 25 117 166
-0.187025 0.0087395 -0.611765 22 115 160
-0.18819 0.0087395 -0.611765 18 111 156
-0.189356 0.0087395 -0.611765 15 108 155
-0.191742 0.00879552 -0.615686 15 105 152
-0.192915 0.00879552 -0.615686 16 100 148
-0.195324 0.00885154 -0.619608 24 97 141
-0.196504 0.00885154 -0.619608 35 94 129
-0.173345 0.0117983 -0.952941 147 157 159
-0.174439 0.0117498 -0.94902 145 157 160
-0.17042 0.0113613 -0.917647 139 158 167
-0.136116 0.00898226 -0.72549 108 136 156
-0.118917 0.00776844 -0.627451 25 65 97
-0.120863 0.00781699 -0.631373 6 66 108
-0.122065 0.00781699 -0.631373 0 66 112
-0.124034 0.00786555 -0.635294 0 65 111
-0.125244 0.00786555 -0.635294 1 66 110
-0.126454 0.00786555 -0.635294 2 66 107
-0.127664 0.00786555 -0.635294 3 65 107
-0.128874 0.00786555 -0.635294 6 61 102
-0.130084 0.00786555 -0.635294 8 58 99
-0.131294 0.00786555 -0.635294 9 55 92
-0.132504 0.00786555 -0.635294 9 52 87
-0.133714 0.00786555 -0.635294 7 52 85
-0.134924 0.00786555 -0.635294 4 54 87
-0.136134 0.00786555 -0.635294 3 59 97
-0.137345 0.00786555 -0.635294 1 66 109
-0.138555 0.00786555 -0.635294 2 76 123
-0.139765 0.00786555 -0.635294 9 91 143
-0.140975 0.00786555 -0.635294 6 92 146
-0.141307 0.00781699 -0.631373 3 92 145
-0.14251 0.00781699 -0.631373 0 89 141
-0.143712 0.00781699 -0.631373 0 88 140
-0.144915 0.00781699 -0.631373 1 91 141
-0.146118 0.00781699 -0.631373 4 94 143
-0.14732 0.00781699 -0.631373 3 95 143
-0.1476 0.00776844 -0.627451 1 97 146
-0.148796 0.00776844 -0.627451 2 100 151
-0.149991 0.00776844 -0.627451 4 98 151
-0.150241 0.00771989 -0.623529 10 95 149
-0.151429 0.00771989 -0.623529 14 96 147
-0.152616 0.00771989 -0.623529 19 97 144
-0.152837 0.00767133 -0.619608 18 96 141
-0.154017 0.00767133 -0.619608 7 84 128
-0.155197 0.00767133 -0.619608 1 74 121
-0.155387 0.00762278 -0.615686 1 72 120
-0.15656 0.00762278 -0.615686 0 68 116
-0.157733 0.00762278 -0.615686 0 69 115
-0.158906 0.00762278 -0.615686 0 70 115
-0.160078 0.00762278 -0.615686 0 73 116
-0.161251 0.00762278 -0.615686 1 80 124
-0.162424 0.00762278 -0.615686 3 87 133
-0.163597 0.00762278 -0.615686 6 93 139
-0.16372 0.00757423 -0.611765 6 98 142
-0.164885 0.00757423 -0.611765 3 97 140
-0.16605 0.00757423 -0.611765 1 93 139
-0.167216 0.00757423 -0.611765 1 92 140
-0.168381 0.00757423 -0.611765 1 90 143
-0.169546 0.00757423 -0.611765 0 88 144
-0.170711 0.00757423 -0.611765 0 88 145
-0.171877 0.00757423 -0.611765 0 89 148
-0.173042 0.00757423 -0.611765 0 91 148
-0.174207 0.00757423 -0.611765 2 95 151
-0.175373 0.00757423 -0.611765 3 99 153
-0.176538 0.00757423 -0.611765 7 105 158
-0.177703 0.00757423 -0.611765 4 106 158
-0.178868 0.00757423 -0.611765 1 106 155
-0.180034 0.00757423 -0.611765 1 106 157
-0.181199 0.00757423 -0.611765 0 106 156
-0.182364 0.00757423 -0.611765 2 108 158
-0.183529 0.00757423 -0.611765 9 110 163
-0.184695 0.00757423 -0.611765 17 113 167
-0.18586 0.00757423 -0.611765 20 116 167
-0.187025 0.00757423 -0.611765 17 113 161
-0.18819 0.00757423 -0.611765 12 108 156
-0.189356 0.00757423 -0.611765 9 105 153
-0.190521 0.00757423 -0.611765 6 102 151
-0.192915 0.00762278 -0.615686 7 98 148
-0.194088 0.00762278 -0.615686 12 96 142
-0.196504 0.00767133 -0.619608 27 95 133
-0.196433 0.00762278 -0.615686 34 86 112
-0.174058 0.0100243 -0.956863 147 156 158
-0.174439 0.00994211 -0.94902 144 157 160
-0.171148 0.00965453 -0.921569 139 158 168
-0.136852 0.00764146 -0.729412 110 138 158
-0.11966 0.00661438 -0.631373 27 67 101
-0.120863 0.00661438 -0.631373 7 66 110
-0.122065 0.00661438 -0.631373 0 68 115
-0.124034 0.00665546 -0.635294 0 67 115
-0.125244 0.00665546 -0.635294 0 68 114
-0.126454 0.00665546 -0.635294 1 69 112
-0.127664 0.00665546 -0.635294 1 67 110
-0.128874 0.00665546 -0.635294 5 63 107
-0.130084 0.00665546 -0.635294 7 59 103
-0.131294 0.00665546 -0.635294 6 54 93
-0.132504 0.00665546 -0.635294 5 50 86
-0.133714 0.00665546 -0.635294 5 49 83
-0.134924 0.00665546 -0.635294 5 51 84
-0.136134 0.00665546 -0.635294 4 55 91
-0.137345 0.00665546 -0.635294 1 61 101
-0.138555 0.00665546 -0.635294 1 68 113
-0.139765 0.00665546 -0.635294 6 83 132
-0.140105 0.00661438 -0.631373 7 89 142
-0.141307 0.00661438 -0.631373 6 93 145
-0.14251 0.00661438 -0.631373 0 91 143
-0.143712 0.00661438 -0.631373 0 89 141
-0.144915 0.00661438 -0.631373 1 91 141
-0.14521 0.0065733 -0.627451 6 94 143
-0.146405 0.0065733 -0.627451 5 96 143
-0.1476 0.0065733 -0.627451 4 99 149
-0.148796 0.0065733 -0.627451 1 101 153
-0.149053 0.00653221 -0.623529 0 97 153
-0.150241 0.00653221 -0.623529 5 97 156
-0.151429 0.00653221 -0.623529 8 97 153
-0.151656 0.00649113 -0.619608 7 95 145
-0.152837 0.00649113 -0.619608 7 95 142
-0.154017 0.00649113 -0.619608 8 92 141
-0.155197 0.00649113 -0.619608 7 90 138
-0.155387 0.00645005 -0.615686 6 82 132
-0.15656 0.00645005 -0.615686 2 74 125
-0.157733 0.00645005 -0.615686 1 68 119
-0.158906 0.00645005 -0.615686 0 66 113
-0.160078 0.00645005 -0.615686 0 68 112
-0.161251 0.00645005 -0.615686 0 76 119
-0.162424 0.00645005 -0.615686 0 83 129
-0.162555 0.00640896 -0.611765 4 90 137
-0.16372 0.00640896 -0.611765 8 98 143
-0.164885 0.00640896 -0.611765 6 100 144
-0.16605 0.00640896 -0.611765 5 98 146
-0.167216 0.00640896 -0.611765 6 99 149
-0.168381 0.00640896 -0.611765 5 96 150
-0.169546 0.00640896 -0.611765 3 92 149
-0.170711 0.00640896 -0.611765 1 91 149
-0.171877 0.00640896 -0.611765 0 90 150
-0.173042 0.00640896 -0.611765 0 91 150
-0.173091 0.00636788 -0.607843 1 96 152
-0.174248 0.00636788 -0.607843 1 99 154
-0.175406 0.00636788 -0.607843 3 105 157
-0.176564 0.00636788 -0.607843 2 106 158
-0.177722 0.00636788 -0.607843 1 105 157
-0.17888 0.00636788 -0.607843 0 105 158
-0.180037 0.00636788 -0.607843 0 104 157
-0.181195 0.00636788 -0.607843 1 106 160
-0.182353 0.00636788 -0.607843 4 108 163
-0.183511 0.00636788 -0.607843 11 112 167
-0.184669 0.00636788 -0.607843 15 115 168
-0.185826 0.00636788 -0.607843 14 112 162
-0.18819 0.00640896 -0.611765 8 106 156
-0.189356 0.00640896 -0.611765 4 103 153
-0.190521 0.00640896 -0.611765 2 100 152
-0.191686 0.00640896 -0.611765 2 99 149
-0.194088 0.00645005 -0.615686 7 96 143
-0.195261 0.00645005 -0.615686 17 92 130
-0.197684 0.00649113 -0.619608 34 92 120
-0.174058 0.00820168 -0.956863 146 155 157
-0.174439 0.00813445 -0.94902 143 156 160
-0.171877 0.00793277 -0.92549 139 158 168
-0.137587 0.00628571 -0.733333 112 141 161
-0.11966 0.00541176 -0.631373 30 73 105
-0.120863 0.00541176 -0.631373 8 70 113
-0.122065 0.00541176 -0.631373 0 70 119
-0.123268 0.00541176 -0.631373 0 71 121
-0.125244 0.00544538 -0.635294 0 71 121
-0.126454 0.00544538 -0.635294 1 73 118
-0.127664 0.00544538 -0.635294 0 69 112
-0.128874 0.00544538 -0.635294 3 67 111
-0.130084 0.00544538 -0.635294 5 62 107
-0.131294 0.00544538 -0.635294 4 56 97
-0.132504 0.00544538 -0.635294 4 49 88
-0.133714 0.00544538 -0.635294 4 47 83
-0.134924 0.00544538 -0.635294 6 48 84
-0.136134 0.00544538 -0.635294 5 52 88
-0.137345 0.00544538 -0.635294 2 55 94
-0.138555 0.00544538 -0.635294 0 61 103
-0.139765 0.00544538 -0.635294 2 72 118
-0.140105 0.00541176 -0.631373 7 84 133
-0.141307 0.00541176 -0.631373 8 92 144
-0.14251 0.00541176 -0.631373 3 92 145
-0.143712 0.00541176 -0.631373 1 90 143
-0.144015 0.00537815 -0.627451 1 91 142
-0.14521 0.00537815 -0.627451 4 93 142
-0.146405 0.00537815 -0.627451 4 95 142
-0.1476 0.00537815 -0.627451 3 99 149
-0.148796 0.00537815 -0.627451 2 98 152
-0.149053 0.00534454 -0.623529 1 97 154
-0.150241 0.00534454 -0.623529 1 97 156
-0.150476 0.00531092 -0.619608 1 97 155
-0.151656 0.00531092 -0.619608 3 98 152
-0.152837 0.00531092 -0.619608 2 96 147
-0.154017 0.00531092 -0.619608 1 92 143
-0.154215 0.00527731 -0.615686 11 98 147
-0.155387 0.00527731 -0.615686 11 92 143
-0.15656 0.00527731 -0.615686 8 84 137
-0.157733 0.00527731 -0.615686 4 77 129
-0.158906 0.00527731 -0.615686 0 70 120
-0.160078 0.00527731 -0.615686 0 70 116
-0.161251 0.00527731 -0.615686 0 73 118
-0.162424 0.00527731 -0.615686 0 79 126
-0.162555 0.0052437 -0.611765 4 88 135
-0.16372 0.0052437 -0.611765 9 98 144
-0.164885 0.0052437 -0.611765 9 101 147
-0.16605 0.0052437 -0.611765 10 103 152
-0.167216 0.0052437 -0.611765 12 104 157
-0.168381 0.0052437 -0.611765 11 103 157
-0.169546 0.0052437 -0.611765 7 98 156
-0.169617 0.00521008 -0.607843 3 95 155
-0.170775 0.00521008 -0.607843 0 95 154
-0.171933 0.00521008 -0.607843 0 93 154
-0.173091 0.00521008 -0.607843 0 97 153
-0.174248 0.00521008 -0.607843 0 99 155
-0.175406 0.00521008 -0.607843 2 105 158
-0.176564 0.00521008 -0.607843 2 106 159
-0.177722 0.00521008 -0.607843 1 105 159
-0.17888 0.00521008 -0.607843 0 104 159
-0.180037 0.00521008 -0.607843 0 103 158
-0.181195 0.00521008 -0.607843 1 105 162
-0.182353 0.00521008 -0.607843 2 107 164
-0.183511 0.00521008 -0.607843 6 111 167
-0.184669 0.00521008 -0.607843 11 115 168
-0.185826 0.00521008 -0.607843 10 111 163
-0.186984 0.00521008 -0.607843 4 105 157
-0.189356 0.0052437 -0.611765 0 102 154
-0.190521 0.0052437 -0.611765 0 100 152
-0.191686 0.0052437 -0.611765 0 99 150
-0.192852 0.0052437 -0.611765 4 95 144
-0.195261 0.00527731 -0.615686 14 91 131
-0.197684 0.00531092 -0.619608 33 93 123
-0.174058 0.00637908 -0.956863 147 155 157
-0.174439 0.0063268 -0.94902 144 156 160
-0.173333 0.00622222 -0.933333 139 158 168
-0.138323 0.00491503 -0.737255 113 142 162
-0.120403 0.00423529 -0.635294 34 77 110
-0.120863 0.00420915 -0.631373 10 73 116
-0.122065 0.00420915 -0.631373 0 72 122
-0.123268 0.00420915 -0.631373 2 74 125
-0.125244 0.00423529 -0.635294 1 76 125
-0.126454 0.00423529 -0.635294 1 75 122
-0.127664 0.00423529 -0.635294 0 73 118
-0.128874 0.00423529 -0.635294 3 70 116
-0.130084 0.00423529 -0.635294 4 66 111
-0.131294 0.00423529 -0.635294 3 59 101
-0.132504 0.00423529 -0.635294 3 52 92
-0.133714 0.00423529 -0.635294 3 46 86
-0.134924 0.00423529 -0.635294 5 47 83
-0.136134 0.00423529 -0.635294 5 48 83
-0.137345 0.00423529 -0.635294 2 51 86
-0.138555 0.00423529 -0.635294 0 55 93
-0.138902 0.00420915 -0.631373 0 63 105
-0.140105 0.00420915 -0.631373 4 76 123
-0.141307 0.00420915 -0.631373 9 87 139
-0.14251 0.00420915 -0.631373 7 91 145
-0.143712 0.00420915 -0.631373 4 91 144
-0.144015 0.00418301 -0.627451 2 92 145
-0.14521 0.00418301 -0.627451 1 94 144
-0.146405 0.00418301 -0.627451 1 96 144
-0.1476 0.00418301 -0.627451 1 97 147
-0.147866 0.00415686 -0.623529 0 97 149
-0.149053 0.00415686 -0.623529 1 97 152
-0.150241 0.00415686 -0.623529 2 100 158
-0.150476 0.00413072 -0.619608 2 101 159
-0.151656 0.00413072 -0.619608 1 100 156
-0.152837 0.00413072 -0.619608 2 99 153
-0.153042 0.00410458 -0.615686 1 100 150
-0.154215 0.00410458 -0.615686 2 96 147
-0.155387 0.00410458 -0.615686 6 96 146
-0.15656 0.00410458 -0.615686 7 90 143
-0.157733 0.00410458 -0.615686 6 86 138
-0.158906 0.00410458 -0.615686 1 79 131
-0.160078 0.00410458 -0.615686 0 74 126
-0.161251 0.00410458 -0.615686 0 73 122
-0.161389 0.00407843 -0.611765 0 76 122
-0.162555 0.00407843 -0.611765 5 86 132
-0.16372 0.00407843 -0.611765 6 95 142
-0.164885 0.00407843 -0.611765 5 99 147
-0.16605 0.00407843 -0.611765 8 104 154
-0.167216 0.00407843 -0.611765 13 107 161
-0.167302 0.00405229 -0.607843 14 108 163
-0.168459 0.00405229 -0.607843 10 105 162
-0.169617 0.00405229 -0.607843 6 102 160
-0.170775 0.00405229 -0.607843 3 101 160
-0.171933 0.00405229 -0.607843 0 98 156
-0.173091 0.00405229 -0.607843 0 100 155
-0.174248 0.00405229 -0.607843 0 102 156
-0.175406 0.00405229 -0.607843 1 108 159
-0.176564 0.00405229 -0.607843 1 107 159
-0.177722 0.00405229 -0.607843 0 105 160
-0.17888 0.00405229 -0.607843 0 104 161
-0.180037 0.00405229 -0.607843 0 102 160
-0.181195 0.00405229 -0.607843 1 105 163
-0.182353 0.00405229 -0.607843 1 106 164
-0.183511 0.00405229 -0.607843 5 111 169
-0.184669 0.00405229 -0.607843 10 116 170
-0.185826 0.00405229 -0.607843 8 111 163
-0.186984 0.00405229 -0.607843 3 104 156
-0.188142 0.00405229 -0.607843 0 101 154
-0.190521 0.00407843 -0.611765 0 99 152
-0.191686 0.00407843 -0.611765 0 98 149
-0.192852 0.00407843 -0.611765 4 95 143
-0.195261 0.00410458 -0.615686 19 95 137
-0.196433 0.00410458 -0.615686 30 89 121
-0.174058 0.00455649 -0.956863 147 156 158
-0.17516 0.00453782 -0.952941 144 156 159
-0.174062 0.00446312 -0.937255 137 156 167
-0.139795 0.00354809 -0.745098 112 141 161
-0.121147 0.00304388 -0.639216 38 81 113
-0.120863 0.00300654 -0.631373 12 74 119
-0.122065 0.00300654 -0.631373 0 72 122
-0.123268 0.00300654 -0.631373 2 75 126
-0.125244 0.00302521 -0.635294 0 76 126
-0.126454 0.00302521 -0.635294 0 76 125
-0.127664 0.00302521 -0.635294 1 76 124
-0.128874 0.00302521 -0.635294 1 73 118
-0.130084 0.00302521 -0.635294 3 70 114
-0.131294 0.00302521 -0.635294 5 63 107
-0.132504 0.00302521 -0.635294 4 55 100
-0.133714 0.00302521 -0.635294 4 48 91
-0.134924 0.00302521 -0.635294 4 46 85
-0.136134 0.00302521 -0.635294 3 47 83
-0.136497 0.00300654 -0.631373 1 49 82
-0.137699 0.00300654 -0.631373 0 52 86
-0.138902 0.00300654 -0.631373 0 58 96
-0.140105 0.00300654 -0.631373 0 66 109
-0.141307 0.00300654 -0.631373 4 78 127
-0.14251 0.00300654 -0.631373 6 85 138
-0.14282 0.00298786 -0.627451 4 88 143
-0.144015 0.00298786 -0.627451 0 91 146
-0.14521 0.00298786 -0.627451 0 94 148
-0.146405 0.00298786 -0.627451 0 97 149
-0.146678 0.00296919 -0.623529 1 98 149
-0.147866 0.00296919 -0.623529 0 97 148
-0.149053 0.00296919 -0.623529 0 97 148
-0.150241 0.00296919 -0.623529 1 100 154
-0.150476 0.00295051 -0.619608 1 101 158
-0.151656 0.00295051 -0.619608 0 98 155
-0.152837 0.00295051 -0.619608 1 100 157
-0.153042 0.00293184 -0.615686 3 106 158
-0.154215 0.00293184 -0.615686 0 98 149
-0.155387 0.00293184 -0.615686 0 98 147
-0.15656 0.00293184 -0.615686 0 94 145
-0.157733 0.00293184 -0.615686 1 92 144
-0.158906 0.00293184 -0.615686 2 86 140
-0.160078 0.00293184 -0.615686 0 82 139
-0.160224 0.00291317 -0.611765 0 78 129
-0.161389 0.00291317 -0.611765 0 76 122
-0.162555 0.00291317 -0.611765 3 84 128
-0.16372 0.00291317 -0.611765 2 90 138
-0.164885 0.00291317 -0.611765 0 94 145
-0.16605 0.00291317 -0.611765 5 100 153
-0.166144 0.00289449 -0.607843 12 108 162
-0.167302 0.00289449 -0.607843 15 112 167
-0.168459 0.00289449 -0.607843 13 111 169
-0.169617 0.00289449 -0.607843 10 110 166
-0.170775 0.00289449 -0.607843 5 107 163
-0.171933 0.00289449 -0.607843 0 104 159
-0.173091 0.00289449 -0.607843 0 106 158
-0.174248 0.00289449 -0.607843 0 106 158
-0.175406 0.00289449 -0.607843 0 109 160
-0.176564 0.00289449 -0.607843 0 109 160
-0.177722 0.00289449 -0.607843 0 107 161
-0.17888 0.00289449 -0.607843 0 107 163
-0.180037 0.00289449 -0.607843 0 105 162
-0.181195 0.00289449 -0.607843 1 105 163
-0.182353 0.00289449 -0.607843 0 107 164
-0.183511 0.00289449 -0.607843 3 112 169
-0.184669 0.00289449 -0.607843 8 116 170
-0.185826 0.00289449 -0.607843 7 112 164
-0.186984 0.00289449 -0.607843 2 105 158
-0.188142 0.00289449 -0.607843 0 100 154
-0.1893 0.00289449 -0.607843 0 99 151
-0.190458 0.00289449 -0.607843 0 97 147
-0.192852 0.00291317 -0.611765 5 95 141
-0.194017 0.00291317 -0.611765 17 92 131
-0.196433 0.00293184 -0.615686 29 84 117
-0.174058 0.00273389 -0.956863 147 156 157
-0.17516 0.00272269 -0.952941 144 155 158
-0.17479 0.00268908 -0.941176 138 156 165
-0.141266 0.00215126 -0.752941 110 139 159
-0.12189 0.00183753 -0.643137 39 83 115
-0.120863 0.00180392 -0.631373 13 75 120
-0.122065 0.00180392 -0.631373 0 71 121
-0.123268 0.00180392 -0.631373 0 76 128
-0.125244 0.00181513 -0.635294 0 75 127
-0.126454 0.00181513 -0.635294 0 77 125
-0.127664 0.00181513 -0.635294 1 78 124
-0.128078 0.00180392 -0.631373 1 75 120
-0.129281 0.00180392 -0.631373 3 72 117
-0.130484 0.00180392 -0.631373 6 67 113
-0.131686 0.00180392 -0.631373 5 59 107
-0.132889 0.00180392 -0.631373 3 51 96
-0.134091 0.00180392 -0.631373 3 47 87
-0.135294 0.00180392 -0.631373 2 46 83
-0.136497 0.00180392 -0.631373 1 47 81
-0.137699 0.00180392 -0.631373 0 50 83
-0.138902 0.00180392 -0.631373 0 55 91
-0.140105 0.00180392 -0.631373 0 58 99
-0.141307 0.00180392 -0.631373 1 67 115
-0.14251 0.00180392 -0.631373 3 75 128
-0.14282 0.00179272 -0.627451 2 85 138
-0.144015 0.00179272 -0.627451 0 89 144
-0.14521 0.00179272 -0.627451 0 95 147
-0.146405 0.00179272 -0.627451 0 98 151
-0.146678 0.00178151 -0.623529 0 100 150
-0.147866 0.00178151 -0.623529 0 99 147
-0.149053 0.00178151 -0.623529 1 101 150
-0.149296 0.00177031 -0.619608 1 102 153
-0.150476 0.00177031 -0.619608 0 102 156
-0.151656 0.00177031 -0.619608 0 104 160
-0.151869 0.0017591 -0.615686 0 101 158
-0.153042 0.0017591 -0.615686 0 98 152
-0.154215 0.0017591 -0.615686 0 102 154
-0.155387 0.0017591 -0.615686 0 99 148
-0.15656 0.0017591 -0.615686 0 95 146
-0.157733 0.0017591 -0.615686 0 93 147
-0.157894 0.0017479 -0.611765 1 90 146
-0.159059 0.0017479 -0.611765 4 89 144
-0.160224 0.0017479 -0.611765 1 86 139
-0.161389 0.0017479 -0.611765 0 80 128
-0.162555 0.0017479 -0.611765 1 83 130
-0.16372 0.0017479 -0.611765 0 88 136
-0.164885 0.0017479 -0.611765 0 91 142
-0.164986 0.00173669 -0.607843 3 96 149
-0.166144 0.00173669 -0.607843 10 105 159
-0.167302 0.00173669 -0.607843 15 113 168
-0.168459 0.00173669 -0.607843 15 115 170
-0.169617 0.00173669 -0.607843 13 115 170
-0.170775 0.00173669 -0.607843 7 111 166
-0.171933 0.00173669 -0.607843 2 107 162
-0.173091 0.00173669 -0.607843 1 111 164
-0.174248 0.00173669 -0.607843 0 109 162
-0.174274 0.00172549 -0.603922 0 110 163
-0.175425 0.00172549 -0.603922 0 110 163
-0.176575 0.00172549 -0.603922 0 109 165
-0.177725 0.00172549 -0.603922 0 109 166
-0.178876 0.00172549 -0.603922 0 107 164
-0.180026 0.00172549 -0.603922 2 107 165
-0.181176 0.00172549 -0.603922 0 108 165
-0.182327 0.00172549 -0.603922 3 112 168
-0.183477 0.00172549 -0.603922 8 116 171
-0.184627 0.00172549 -0.603922 6 113 166
-0.186984 0.00173669 -0.607843 1 106 158
-0.188142 0.00173669 -0.607843 0 102 155
-0.1893 0.00173669 -0.607843 0 100 152
-0.190458 0.00173669 -0.607843 1 98 148
-0.191615 0.00173669 -0.607843 6 96 140
-0.194017 0.0017479 -0.611765 16 90 130
-0.196433 0.0017591 -0.615686 34 90 123
-0.174058 0.000911298 -0.956863 149 156 156
-0.17516 0.000907563 -0.952941 145 155 158
-0.175518 0.000900093 -0.945098 141 158 168
-0.143473 0.000728291 -0.764706 119 148 168
-0.12412 0.000623716 -0.654902 40 84 116
-0.120863 0.000601307 -0.631373 13 73 116
-0.122065 0.000601307 -0.631373 0 70 121
-0.123268 0.000601307 -0.631373 0 75 127
-0.125244 0.000605042 -0.635294 1 81 132
-0.126454 0.000605042 -0.635294 0 79 127
-0.127664 0.000605042 -0.635294 0 75 122
-0.128078 0.000601307 -0.631373 2 76 121
-0.129281 0.000601307 -0.631373 5 74 121
-0.130484 0.000601307 -0.631373 4 69 117
-0.131686 0.000601307 -0.631373 4 63 111
-0.132889 0.000601307 -0.631373 3 55 100
-0.134091 0.000601307 -0.631373 1 48 90
-0.135294 0.000601307 -0.631373 1 45 85
-0.136497 0.000601307 -0.631373 1 45 81
-0.137699 0.000601307 -0.631373 3 48 83
-0.138902 0.000601307 -0.631373 3 52 90
-0.140105 0.000601307 -0.631373 2 56 96
-0.141307 0.000601307 -0.631373 1 62 108
-0.141625 0.000597572 -0.627451 4 71 123
-0.14282 0.000597572 -0.627451 5 81 133
-0.144015 0.000597572 -0.627451 1 87 140
-0.14521 0.000597572 -0.627451 0 93 144
-0.14549 0.000593838 -0.623529 1 100 150
-0.146678 0.000593838 -0.623529 5 105 154
-0.147866 0.000593838 -0.623529 4 106 154
-0.149053 0.000593838 -0.623529 2 104 152
-0.149296 0.000590103 -0.619608 2 103 154
-0.150476 0.000590103 -0.619608 5 105 159
-0.151656 0.000590103 -0.619608 6 107 161
-0.151869 0.000586368 -0.615686 3 104 158
-0.153042 0.000586368 -0.615686 0 101 155
-0.154215 0.000586368 -0.615686 0 100 154
-0.155387 0.000586368 -0.615686 0 99 151
-0.15656 0.000586368 -0.615686 0 97 150
-0.156728 0.000582633 -0.611765 0 95 149
-0.157894 0.000582633 -0.611765 0 93 147
-0.159059 0.000582633 -0.611765 0 90 143
-0.160224 0.000582633 -0.611765 2 89 142
-0.161389 0.000582633 -0.611765 1 89 140
-0.162555 0.000582633 -0.611765 0 86 137
-0.16372 0.000582633 -0.611765 0 86 136
-0.163828 0.000578898 -0.607843 0 87 138
-0.164986 0.000578898 -0.607843 1 90 143
-0.166144 0.000578898 -0.607843 5 97 151
-0.167302 0.000578898 -0.607843 9 104 159
-0.168459 0.000578898 -0.607843 11 108 164
-0.169617 0.000578898 -0.607843 10 111 167
-0.169673 0.000575163 -0.603922 7 112 167
-0.170824 0.000575163 -0.603922 4 110 167
-0.171974 0.000575163 -0.603922 0 109 165
-0.173124 0.000575163 -0.603922 0 109 165
-0.174274 0.000575163 -0.603922 0 110 165
-0.175425 0.000575163 -0.603922 0 110 165
-0.176575 0.000575163 -0.603922 0 109 165
-0.177725 0.000575163 -0.603922 0 107 164
-0.178876 0.000575163 -0.603922 0 108 165
-0.180026 0.000575163 -0.603922 0 109 165
-0.181176 0.000575163 -0.603922 0 110 165
-0.182327 0.000575163 -0.603922 1 112 167
-0.183477 0.000575163 -0.603922 4 115 169
-0.184627 0.000575163 -0.603922 5 116 169
-0.185778 0.000575163 -0.603922 3 112 165
-0.188142 0.000578898 -0.607843 1 104 159
-0.1893 0.000578898 -0.607843 0 101 154
-0.190458 0.000578898 -0.607843 0 101 149
-0.191615 0.000578898 -0.607843 6 98 141
-0.192773 0.000578898 -0.607843 16 93 131
-0.195182 0.000582633 -0.611765 30 87 117
-0.173345 -0.000907563 -0.952941 148 155 155
-0.17516 -0.000907563 -0.952941 144 153 157
-0.175518 -0.000900093 -0.945098 140 156 166
-0.146416 -0.000743231 -0.780392 118 147 166
-0.126349 -0.000634921 -0.666667 47 89 120
-0.120863 -0.000601307 -0.631373 9 65 107
-0.122065 -0.000601307 -0.631373 4 72 121
-0.123268 -0.000601307 -0.631373 0 75 127
-0.125244 -0.000605042 -0.635294 0 76 127
-0.126454 -0.000605042 -0.635294 1 79 127
-0.127664 -0.000605042 -0.635294 3 80 126
-0.128078 -0.000601307 -0.631373 2 77 124
-0.129281 -0.000601307 -0.631373 3 76 123
-0.130484 -0.000601307 -0.631373 3 71 121
-0.131686 -0.000601307 -0.631373 4 67 116
-0.132889 -0.000601307 -0.631373 2 59 106
-0.134091 -0.000601307 -0.631373 0 51 95
-0.135294 -0.000601307 -0.631373 0 47 87
-0.136497 -0.000601307 -0.631373 0 44 82
-0.137699 -0.000601307 -0.631373 1 45 83
-0.138902 -0.000601307 -0.631373 2 48 87
-0.140105 -0.000601307 -0.631373 3 53 94
-0.141307 -0.000601307 -0.631373 2 59 105
-0.141625 -0.000597572 -0.627451 3 67 115
-0.14282 -0.000597572 -0.627451 3 75 126
-0.144015 -0.000597572 -0.627451 3 84 134
-0.14521 -0.000597572 -0.627451 5 91 140
-0.14549 -0.000593838 -0.623529 7 101 147
-0.146678 -0.000593838 -0.623529 8 105 152
-0.147866 -0.000593838 -0.623529 7 107 155
-0.148116 -0.000590103 -0.619608 7 107 156
-0.149296 -0.000590103 -0.619608 7 107 157
-0.150476 -0.000590103 -0.619608 9 109 159
-0.150697 -0.000586368 -0.615686 9 109 160
-0.151869 -0.000586368 -0.615686 6 106 158
-0.153042 -0.000586368 -0.615686 3 102 155
-0.154215 -0.000586368 -0.615686 2 101 156
-0.155387 -0.000586368 -0.615686 0 99 154
-0.155563 -0.000582633 -0.611765 0 97 152
-0.156728 -0.000582633 -0.611765 0 96 149
-0.157894 -0.000582633 -0.611765 0 94 148
-0.159059 -0.000582633 -0.611765 0 92 144
-0.160224 -0.000582633 -0.611765 0 90 143
-0.161389 -0.000582633 -0.611765 0 89 141
-0.161513 -0.000578898 -0.607843 0 87 140
-0.16267 -0.000578898 -0.607843 0 85 137
-0.163828 -0.000578898 -0.607843 0 84 135
-0.164986 -0.000578898 -0.607843 0 85 137
-0.166144 -0.000578898 -0.607843 0 89 142
-0.167302 -0.000578898 -0.607843 1 94 147
-0.167373 -0.000575163 -0.603922 2 99 153
-0.168523 -0.000575163 -0.603922 3 104 159
-0.169673 -0.000575163 -0.603922 3 107 162
-0.170824 -0.000575163 -0.603922 1 106 163
-0.171974 -0.000575163 -0.603922 0 107 163
-0.173124 -0.000575163 -0.603922 0 108 165
-0.174274 -0.000575163 -0.603922 0 109 166
-0.175425 -0.000575163 -0.603922 0 109 166
-0.176575 -0.000575163 -0.603922 0 109 165
-0.177725 -0.000575163 -0.603922 0 108 165
-0.178876 -0.000575163 -0.603922 0 109 165
-0.180026 -0.000575163 -0.603922 0 109 165
-0.181176 -0.000575163 -0.603922 0 110 165
-0.182327 -0.000575163 -0.603922 1 112 167
-0.183477 -0.000575163 -0.603922 2 115 169
-0.184627 -0.000575163 -0.603922 4 117 169
-0.185778 -0.000575163 -0.603922 5 114 168
-0.186928 -0.000575163 -0.603922 3 107 162
-0.188078 -0.000575163 -0.603922 0 103 156
-0.190458 -0.000578898 -0.607843 0 101 150
-0.191615 -0.000578898 -0.607843 4 97 141
-0.192773 -0.000578898 -0.607843 15 92 130
-0.195182 -0.000582633 -0.611765 34 91 120
-0.173345 -0.00272269 -0.952941 148 155 155
-0.17516 -0.00272269 -0.952941 146 152 156
-0.176246 -0.00271148 -0.94902 143 157 165
-0.150095 -0.00228571 -0.8 129 156 174
-0.129322 -0.00194958 -0.682353 65 104 132
-0.120863 -0.00180392 -0.631373 11 64 105
-0.122065 -0.00180392 -0.631373 8 72 120
-0.123268 -0.00180392 -0.631373 4 77 128
-0.124471 -0.00180392 -0.631373 0 75 127
-0.126454 -0.00181513 -0.635294 1 77 126
-0.126876 -0.00180392 -0.631373 1 77 126
-0.128078 -0.00180392 -0.631373 0 77 126
-0.129281 -0.00180392 -0.631373 1 77 127
-0.130484 -0.00180392 -0.631373 1 74 125
-0.131686 -0.00180392 -0.631373 5 71 121
-0.132889 -0.00180392 -0.631373 4 65 111
-0.134091 -0.00180392 -0.631373 0 56 99
-0.135294 -0.00180392 -0.631373 0 50 91
-0.136497 -0.00180392 -0.631373 0 45 85
-0.137699 -0.00180392 -0.631373 0 45 84
-0.138902 -0.00180392 -0.631373 0 49 87
-0.140105 -0.00180392 -0.631373 2 51 93
-0.140429 -0.00179272 -0.627451 1 55 101
-0.141625 -0.00179272 -0.627451 0 62 108
-0.14282 -0.00179272 -0.627451 0 69 117
-0.144015 -0.00179272 -0.627451 0 76 125
-0.144303 -0.00178151 -0.623529 3 85 132
-0.14549 -0.00178151 -0.623529 9 95 142
-0.146678 -0.00178151 -0.623529 12 103 150
-0.146936 -0.00177031 -0.619608 14 107 156
-0.148116 -0.00177031 -0.619608 15 110 160
-0.149296 -0.00177031 -0.619608 15 112 162
-0.150476 -0.00177031 -0.619608 16 112 163
-0.150697 -0.0017591 -0.615686 13 111 163
-0.151869 -0.0017591 -0.615686 9 109 161
-0.153042 -0.0017591 -0.615686 5 106 158
-0.154215 -0.0017591 -0.615686 3 105 157
-0.154398 -0.0017479 -0.611765 1 101 156
-0.155563 -0.0017479 -0.611765 0 97 152
-0.156728 -0.0017479 -0.611765 0 96 149
-0.157894 -0.0017479 -0.611765 0 95 149
-0.159059 -0.0017479 -0.611765 0 93 145
-0.160224 -0.0017479 -0.611765 0 90 143
-0.160355 -0.00173669 -0.607843 2 89 142
-0.161513 -0.00173669 -0.607843 1 87 141
-0.16267 -0.00173669 -0.607843 0 85 137
-0.163828 -0.00173669 -0.607843 0 83 134
-0.164986 -0.00173669 -0.607843 0 82 134
-0.166144 -0.00173669 -0.607843 0 85 138
-0.166222 -0.00172549 -0.603922 0 89 142
-0.167373 -0.00172549 -0.603922 0 93 147
-0.168523 -0.00172549 -0.603922 0 98 153
-0.169673 -0.00172549 -0.603922 0 101 158
-0.170824 -0.00172549 -0.603922 0 102 160
-0.171974 -0.00172549 -0.603922 0 105 162
-0.173124 -0.00172549 -0.603922 0 106 162
-0.174274 -0.00172549 -0.603922 0 107 163
-0.175425 -0.00172549 -0.603922 1 108 164
-0.176575 -0.00172549 -0.603922 0 109 165
-0.177725 -0.00172549 -0.603922 2 109 165
-0.177714 -0.00171429 -0.6 2 109 165
-0.178857 -0.00171429 -0.6 2 109 165
-0.18 -0.00171429 -0.6 1 109 165
-0.181143 -0.00171429 -0.6 0 110 166
-0.183477 -0.00172549 -0.603922 2 114 168
-0.184627 -0.00172549 -0.603922 5 118 170
-0.185778 -0.00172549 -0.603922 7 116 170
-0.186928 -0.00172549 -0.603922 4 110 164
-0.188078 -0.00172549 -0.603922 1 105 158
-0.189229 -0.00172549 -0.603922 0 100 151
-0.190379 -0.00172549 -0.603922 5 96 140
-0.192773 -0.00173669 -0.607843 17 91 130
-0.193931 -0.00173669 -0.607843 37 92 122
-0.17516 -0.00453782 -0.952941 147 153 157
-0.176246 -0.00451914 -0.94902 144 155 164
-0.155246 -0.00394024 -0.827451 131 154 169
-0.133782 -0.00336134 -0.705882 79 113 139
-0.120863 -0.00300654 -0.631373 13 64 102
-0.122824 -0.00302521 -0.635294 7 68 114
-0.123268 -0.00300654 -0.631373 4 75 126
-0.125244 -0.00302521 -0.635294 0 76 128
-0.126454 -0.00302521 -0.635294 0 75 125
-0.126876 -0.00300654 -0.631373 0 75 125
-0.128078 -0.00300654 -0.631373 0 76 126
-0.129281 -0.00300654 -0.631373 1 79 128
-0.130484 -0.00300654 -0.631373 1 77 126
-0.131686 -0.00300654 -0.631373 5 75 125
-0.132889 -0.00300654 -0.631373 4 69 117
-0.134091 -0.00300654 -0.631373 1 60 105
-0.135294 -0.00300654 -0.631373 0 53 95
-0.136497 -0.00300654 -0.631373 0 48 87
-0.137699 -0.00300654 -0.631373 0 47 84
-0.138902 -0.00300654 -0.631373 0 50 88
-0.139234 -0.00298786 -0.627451 2 51 93
-0.140429 -0.00298786 -0.627451 1 54 98
-0.141625 -0.00298786 -0.627451 0 57 105
-0.14282 -0.00298786 -0.627451 0 64 112
-0.143115 -0.00296919 -0.623529 0 69 118
-0.144303 -0.00296919 -0.623529 3 77 125
-0.14549 -0.00296919 -0.623529 5 86 133
-0.146678 -0.00296919 -0.623529 9 94 141
-0.146936 -0.00295051 -0.619608 13 100 150
-0.148116 -0.00295051 -0.619608 15 106 156
-0.149296 -0.00295051 -0.619608 16 108 159
-0.149524 -0.00293184 -0.615686 15 110 161
-0.150697 -0.00293184 -0.615686 13 109 161
-0.151869 -0.00293184 -0.615686 10 108 158
-0.153042 -0.00293184 -0.615686 6 107 157
-0.153232 -0.00291317 -0.611765 5 106 158
-0.154398 -0.00291317 -0.611765 3 103 156
-0.155563 -0.00291317 -0.611765 0 98 153
-0.156728 -0.00291317 -0.611765 0 97 149
-0.157894 -0.00291317 -0.611765 0 95 149
-0.158039 -0.00289449 -0.607843 0 92 144
-0.159197 -0.00289449 -0.607843 0 89 142
-0.160355 -0.00289449 -0.607843 1 88 141
-0.161513 -0.00289449 -0.607843 2 87 141
-0.16267 -0.00289449 -0.607843 1 86 138
-0.163828 -0.00289449 -0.607843 0 85 135
-0.163922 -0.00287582 -0.603922 0 84 136
-0.165072 -0.00287582 -0.603922 0 85 138
-0.166222 -0.00287582 -0.603922 0 88 140
-0.167373 -0.00287582 -0.603922 0 91 144
-0.168523 -0.00287582 -0.603922 0 94 150
-0.169673 -0.00287582 -0.603922 1 98 155
-0.170824 -0.00287582 -0.603922 0 100 157
-0.171974 -0.00287582 -0.603922 0 103 159
-0.172 -0.00285714 -0.6 0 103 160
-0.173143 -0.00285714 -0.6 0 105 162
-0.174286 -0.00285714 -0.6 1 106 163
-0.175429 -0.00285714 -0.6 2 107 164
-0.176571 -0.00285714 -0.6 2 107 164
-0.177714 -0.00285714 -0.6 2 107 164
-0.178857 -0.00285714 -0.6 1 108 164
-0.18 -0.00285714 -0.6 1 108 164
-0.181143 -0.00285714 -0.6 0 108 164
-0.182286 -0.00285714 -0.6 2 112 166
-0.183429 -0.00285714 -0.6 5 116 169
-0.184571 -0.00285714 -0.6 6 116 169
-0.186928 -0.00287582 -0.603922 5 112 165
-0.188078 -0.00287582 -0.603922 1 107 159
-0.189229 -0.00287582 -0.603922 0 101 151
-0.190379 -0.00287582 -0.603922 4 95 141
-0.191529 -0.00287582 -0.603922 20 93 130
-0.193931 -0.00289449 -0.607843 35 90 118
-0.17516 -0.00635294 -0.952941 147 153 155
-0.176246 -0.0063268 -0.94902 143 152 161
-0.161867 -0.00575163 -0.862745 132 151 166
-0.138984 -0.00488889 -0.733333 96 126 149
-0.120112 -0.00418301 -0.627451 17 62 96
-0.122824 -0.00423529 -0.635294 12 69 111
-0.123268 -0.00420915 -0.631373 5 70 119
-0.125244 -0.00423529 -0.635294 0 72 124
-0.126454 -0.00423529 -0.635294 0 73 124
-0.127664 -0.00423529 -0.635294 0 75 126
-0.128078 -0.00420915 -0.631373 0 77 126
-0.129281 -0.00420915 -0.631373 1 79 128
-0.130484 -0.00420915 -0.631373 1 77 126
-0.131686 -0.00420915 -0.631373 4 76 125
-0.132889 -0.00420915 -0.631373 4 71 119
-0.134091 -0.00420915 -0.631373 1 63 108
-0.135294 -0.00420915 -0.631373 0 56 98
-0.136497 -0.00420915 -0.631373 0 50 88
-0.137699 -0.00420915 -0.631373 0 49 87
-0.138039 -0.00418301 -0.627451 0 50 89
-0.139234 -0.00418301 -0.627451 0 52 93
-0.140429 -0.00418301 -0.627451 0 53 97
-0.141625 -0.00418301 -0.627451 1 55 103
-0.14282 -0.00418301 -0.627451 1 62 109
-0.143115 -0.00415686 -0.623529 3 66 114
-0.144303 -0.00415686 -0.623529 5 73 120
-0.14549 -0.00415686 -0.623529 7 80 127
-0.145755 -0.00413072 -0.619608 8 84 132
-0.146936 -0.00413072 -0.619608 10 91 139
-0.148116 -0.00413072 -0.619608 15 97 147
-0.148351 -0.00410458 -0.615686 16 102 150
-0.149524 -0.00410458 -0.615686 14 105 154
-0.150697 -0.00410458 -0.615686 13 107 157
-0.151869 -0.00410458 -0.615686 12 108 158
-0.152067 -0.00407843 -0.611765 10 109 158
-0.153232 -0.00407843 -0.611765 8 109 160
-0.154398 -0.00407843 -0.611765 4 105 157
-0.155563 -0.00407843 -0.611765 1 100 153
-0.156728 -0.00407843 -0.611765 0 98 150
-0.156881 -0.00405229 -0.607843 0 95 149
-0.158039 -0.00405229 -0.607843 0 91 146
-0.159197 -0.00405229 -0.607843 0 88 144
-0.160355 -0.00405229 -0.607843 1 88 142
-0.161513 -0.00405229 -0.607843 3 88 142
-0.16267 -0.00405229 -0.607843 2 87 139
-0.162771 -0.00402614 -0.603922 0 86 136
-0.163922 -0.00402614 -0.603922 0 85 137
-0.165072 -0.00402614 -0.603922 0 86 139
-0.166222 -0.00402614 -0.603922 0 87 139
-0.167373 -0.00402614 -0.603922 0 90 141
-0.168523 -0.00402614 -0.603922 0 93 145
-0.168571 -0.004 -0.6 0 96 148
-0.169714 -0.004 -0.6 0 96 151
-0.170857 -0.004 -0.6 0 99 154
-0.172 -0.004 -0.6 0 100 157
-0.173143 -0.004 -0.6 1 103 159
-0.174286 -0.004 -0.6 2 104 160
-0.175429 -0.004 -0.6 1 105 163
-0.176571 -0.004 -0.6 1 105 162
-0.177714 -0.004 -0.6 1 105 163
-0.178857 -0.004 -0.6 0 105 163
-0.18 -0.004 -0.6 1 106 164
-0.181143 -0.004 -0.6 0 107 165
-0.182286 -0.004 -0.6 1 110 165
-0.183429 -0.004 -0.6 4 115 167
-0.184571 -0.004 -0.6 6 117 167
-0.185714 -0.004 -0.6 3 112 164
-0.186857 -0.004 -0.6 1 107 159
-0.189229 -0.00402614 -0.603922 0 101 152
-0.190379 -0.00402614 -0.603922 5 96 142
-0.191529 -0.00402614 -0.603922 21 94 130
-0.193931 -0.00405229 -0.607843 34 86 115
-0.175518 -0.00810084 -0.945098 144 153 158
-0.169225 -0.00773109 -0.901961 140 156 167
-0.145673 -0.00658824 -0.768627 113 139 160
-0.120863 -0.00541176 -0.631373 21 60 90
-0.122824 -0.00544538 -0.635294 18 69 108
-0.123268 -0.00541176 -0.631373 6 65 112
-0.124471 -0.00541176 -0.631373 2 69 120
-0.126454 -0.00544538 -0.635294 0 70 121
-0.127664 -0.00544538 -0.635294 0 72 124
-0.128078 -0.00541176 -0.631373 0 75 125
-0.129281 -0.00541176 -0.631373 1 78 127
-0.130484 -0.00541176 -0.631373 1 77 126
-0.131686 -0.00541176 -0.631373 4 76 125
-0.132889 -0.00541176 -0.631373 4 72 121
-0.134091 -0.00541176 -0.631373 1 65 112
-0.135294 -0.00541176 -0.631373 1 60 103
-0.136497 -0.00541176 -0.631373 0 54 93
-0.136844 -0.00537815 -0.627451 0 52 91
-0.138039 -0.00537815 -0.627451 0 51 89
-0.139234 -0.00537815 -0.627451 0 53 94
-0.140429 -0.00537815 -0.627451 0 53 97
-0.141625 -0.00537815 -0.627451 0 54 101
-0.141927 -0.00534454 -0.623529 2 61 110
-0.143115 -0.00534454 -0.623529 2 65 113
-0.144303 -0.00534454 -0.623529 2 68 116
-0.14549 -0.00534454 -0.623529 4 72 119
-0.145755 -0.00531092 -0.619608 3 74 123
-0.146936 -0.00531092 -0.619608 6 79 129
-0.148116 -0.00531092 -0.619608 10 87 136
-0.148351 -0.00527731 -0.615686 12 91 140
-0.149524 -0.00527731 -0.615686 12 96 145
-0.150697 -0.00527731 -0.615686 12 101 151
-0.150902 -0.0052437 -0.611765 12 105 154
-0.152067 -0.0052437 -0.611765 11 108 157
-0.153232 -0.0052437 -0.611765 11 111 160
-0.154398 -0.0052437 -0.611765 5 107 157
-0.155563 -0.0052437 -0.611765 2 103 155
-0.155724 -0.00521008 -0.607843 2 99 152
-0.156881 -0.00521008 -0.607843 1 97 151
-0.158039 -0.00521008 -0.607843 0 92 146
-0.159197 -0.00521008 -0.607843 0 88 144
-0.160355 -0.00521008 -0.607843 1 88 142
-0.160471 -0.00517647 -0.603922 2 87 142
-0.161621 -0.00517647 -0.603922 2 87 141
-0.162771 -0.00517647 -0.603922 1 87 137
-0.163922 -0.00517647 -0.603922 0 85 137
-0.165072 -0.00517647 -0.603922 0 84 138
-0.166222 -0.00517647 -0.603922 0 86 138
-0.166286 -0.00514286 -0.6 0 86 138
-0.167429 -0.00514286 -0.6 0 89 141
-0.168571 -0.00514286 -0.6 0 92 143
-0.169714 -0.00514286 -0.6 0 93 146
-0.170857 -0.00514286 -0.6 0 96 150
-0.172 -0.00514286 -0.6 0 98 153
-0.173143 -0.00514286 -0.6 2 100 155
-0.174286 -0.00514286 -0.6 1 101 158
-0.175429 -0.00514286 -0.6 2 102 159
-0.176571 -0.00514286 -0.6 1 102 161
-0.177714 -0.00514286 -0.6 0 102 160
-0.178857 -0.00514286 -0.6 0 102 160
-0.18 -0.00514286 -0.6 1 105 163
-0.181143 -0.00514286 -0.6 0 107 164
-0.182286 -0.00514286 -0.6 0 109 164
-0.183429 -0.00514286 -0.6 3 114 166
-0.184571 -0.00514286 -0.6 5 117 167
-0.185714 -0.00514286 -0.6 3 113 164
-0.186857 -0.00514286 -0.6 1 108 160
-0.188 -0.00514286 -0.6 0 102 153
-0.189143 -0.00514286 -0.6 6 97 143
-0.191529 -0.00517647 -0.603922 26 97 135
-0.19268 -0.00517647 -0.603922 37 89 117
-0.175518 -0.00990103 -0.945098 145 152 155
-0.174375 -0.00973669 -0.929412 142 155 163
-0.150876 -0.00833987 -0.796078 124 145 162
-0.122364 -0.00669655 -0.639216 37 70 97
-0.122824 -0.00665546 -0.635294 17 61 96
-0.123268 -0.00661438 -0.631373 7 61 103
-0.124471 -0.00661438 -0.631373 1 64 112
-0.126454 -0.00665546 -0.635294 0 66 116
-0.127664 -0.00665546 -0.635294 0 68 119
-0.128078 -0.00661438 -0.631373 0 71 120
-0.129281 -0.00661438 -0.631373 1 75 122
-0.130484 -0.00661438 -0.631373 1 75 122
-0.131686 -0.00661438 -0.631373 5 75 124
-0.132889 -0.00661438 -0.631373 5 72 121
-0.134091 -0.00661438 -0.631373 2 67 114
-0.135294 -0.00661438 -0.631373 2 64 107
-0.135649 -0.0065733 -0.627451 0 60 100
-0.136844 -0.0065733 -0.627451 1 58 97
-0.138039 -0.0065733 -0.627451 1 55 93
-0.139234 -0.0065733 -0.627451 1 54 98
-0.140429 -0.0065733 -0.627451 0 54 99
-0.14074 -0.00653221 -0.623529 0 53 102
-0.141927 -0.00653221 -0.623529 1 58 108
-0.143115 -0.00653221 -0.623529 1 61 112
-0.144303 -0.00653221 -0.623529 0 62 111
-0.144575 -0.00649113 -0.619608 1 66 113
-0.145755 -0.00649113 -0.619608 0 66 114
-0.146936 -0.00649113 -0.619608 2 69 117
-0.147178 -0.00645005 -0.615686 3 74 121
-0.148351 -0.00645005 -0.615686 4 79 126
-0.149524 -0.00645005 -0.615686 4 85 132
-0.150697 -0.00645005 -0.615686 7 91 138
-0.150902 -0.00640896 -0.611765 7 95 143
-0.152067 -0.00640896 -0.611765 7 100 148
-0.153232 -0.00640896 -0.611765 8 104 153
-0.154398 -0.00640896 -0.611765 7 104 155
-0.154566 -0.00636788 -0.607843 5 103 154
-0.155724 -0.00636788 -0.607843 4 101 153
-0.156881 -0.00636788 -0.607843 3 97 150
-0.158039 -0.00636788 -0.607843 0 92 146
-0.159197 -0.00636788 -0.607843 0 89 145
-0.15932 -0.0063268 -0.603922 2 88 144
-0.160471 -0.0063268 -0.603922 2 87 142
-0.161621 -0.0063268 -0.603922 2 87 141
-0.162771 -0.0063268 -0.603922 2 86 140
-0.163922 -0.0063268 -0.603922 1 85 138
-0.165072 -0.0063268 -0.603922 1 85 137
-0.165143 -0.00628571 -0.6 0 84 136
-0.166286 -0.00628571 -0.6 0 83 135
-0.167429 -0.00628571 -0.6 0 87 137
-0.168571 -0.00628571 -0.6 0 89 140
-0.169714 -0.00628571 -0.6 0 90 143
-0.170857 -0.00628571 -0.6 1 93 146
-0.172 -0.00628571 -0.6 0 95 149
-0.173143 -0.00628571 -0.6 1 97 151
-0.174286 -0.00628571 -0.6 1 99 154
-0.174282 -0.00624463 -0.596078 1 99 156
-0.175417 -0.00624463 -0.596078 0 100 159
-0.176553 -0.00624463 -0.596078 0 100 158
-0.177688 -0.00624463 -0.596078 0 100 158
-0.178824 -0.00624463 -0.596078 1 103 161
-0.179959 -0.00624463 -0.596078 0 105 163
-0.181094 -0.00624463 -0.596078 0 108 164
-0.18223 -0.00624463 -0.596078 3 114 165
-0.183365 -0.00624463 -0.596078 5 117 167
-0.185714 -0.00628571 -0.6 3 115 165
-0.186857 -0.00628571 -0.6 1 109 161
-0.188 -0.00628571 -0.6 2 104 155
-0.189143 -0.00628571 -0.6 9 100 146
-0.190286 -0.00628571 -0.6 27 100 139
-0.177318 -0.0117012 -0.945098 141 151 157
-0.156822 -0.0102446 -0.827451 134 152 164
-0.12837 -0.00830252 -0.670588 69 98 119
-0.123582 -0.0079141 -0.639216 13 52 81
-0.123268 -0.00781699 -0.631373 9 58 96
-0.124471 -0.00781699 -0.631373 1 57 102
-0.125673 -0.00781699 -0.631373 0 59 107
-0.127664 -0.00786555 -0.635294 0 63 112
-0.128078 -0.00781699 -0.631373 0 65 113
-0.129281 -0.00781699 -0.631373 0 69 114
-0.130484 -0.00781699 -0.631373 1 70 116
-0.131686 -0.00781699 -0.631373 5 72 120
-0.132889 -0.00781699 -0.631373 5 71 119
-0.134091 -0.00781699 -0.631373 3 68 114
-0.134454 -0.00776844 -0.627451 3 66 109
-0.135649 -0.00776844 -0.627451 2 64 104
-0.136844 -0.00776844 -0.627451 4 63 103
-0.138039 -0.00776844 -0.627451 1 57 98
-0.139234 -0.00776844 -0.627451 2 56 101
-0.140429 -0.00776844 -0.627451 0 54 101
-0.14074 -0.00771989 -0.623529 0 51 102
-0.141927 -0.00771989 -0.623529 0 55 106
-0.143115 -0.00771989 -0.623529 0 58 109
-0.144303 -0.00771989 -0.623529 0 60 110
-0.144575 -0.00767133 -0.619608 1 63 111
-0.145755 -0.00767133 -0.619608 1 64 111
-0.146936 -0.00767133 -0.619608 2 65 112
-0.147178 -0.00762278 -0.615686 1 67 113
-0.148351 -0.00762278 -0.615686 0 72 117
-0.149524 -0.00762278 -0.615686 2 78 124
-0.149737 -0.00757423 -0.611765 5 83 130
-0.150902 -0.00757423 -0.611765 5 86 134
-0.152067 -0.00757423 -0.611765 4 90 139
-0.153232 -0.00757423 -0.611765 7 96 145
-0.153408 -0.00752568 -0.607843 9 99 150
-0.154566 -0.00752568 -0.607843 6 99 151
-0.155724 -0.00752568 -0.607843 6 100 151
-0.156881 -0.00752568 -0.607843 4 97 149
-0.158039 -0.00752568 -0.607843 0 91 145
-0.15817 -0.00747712 -0.603922 0 89 145
-0.15932 -0.00747712 -0.603922 2 89 146
-0.160471 -0.00747712 -0.603922 2 88 145
-0.161621 -0.00747712 -0.603922 1 87 142
-0.162771 -0.00747712 -0.603922 1 85 139
-0.162857 -0.00742857 -0.6 3 85 138
-0.164 -0.00742857 -0.6 2 86 138
-0.165143 -0.00742857 -0.6 1 85 136
-0.166286 -0.00742857 -0.6 1 84 134
-0.167429 -0.00742857 -0.6 0 85 135
-0.168571 -0.00742857 -0.6 0 87 138
-0.169714 -0.00742857 -0.6 0 88 139
-0.16974 -0.00738002 -0.596078 0 91 143
-0.170876 -0.00738002 -0.596078 1 93 146
-0.172011 -0.00738002 -0.596078 1 95 148
-0.173147 -0.00738002 -0.596078 1 97 151
-0.174282 -0.00738002 -0.596078 0 97 153
-0.175417 -0.00738002 -0.596078 0 98 155
-0.176553 -0.00738002 -0.596078 0 98 156
-0.177688 -0.00738002 -0.596078 0 99 158
-0.178824 -0.00738002 -0.596078 1 101 160
-0.179959 -0.00738002 -0.596078 0 103 160
-0.181094 -0.00738002 -0.596078 1 107 161
-0.18223 -0.00738002 -0.596078 4 113 165
-0.183365 -0.00738002 -0.596078 6 117 167
-0.1845 -0.00738002 -0.596078 3 115 165
-0.185636 -0.00738002 -0.596078 1 110 161
-0.186771 -0.00738002 -0.596078 3 106 157
-0.189143 -0.00742857 -0.6 11 102 149
-0.190286 -0.00742857 -0.6 26 99 138
-0.164254 -0.012381 -0.866667 140 154 162
-0.13963 -0.0104202 -0.729412 111 134 150
-0.125098 -0.0092437 -0.647059 26 59 83
-0.123268 -0.00901961 -0.631373 7 49 83
-0.124471 -0.00901961 -0.631373 1 49 91
-0.125673 -0.00901961 -0.631373 1 55 99
-0.127664 -0.00907563 -0.635294 0 57 104
-0.128078 -0.00901961 -0.631373 0 60 105
-0.129281 -0.00901961 -0.631373 0 64 108
-0.130484 -0.00901961 -0.631373 0 65 111
-0.131686 -0.00901961 -0.631373 3 67 115
-0.132889 -0.00901961 -0.631373 3 68 116
-0.133259 -0.00896358 -0.627451 3 68 114
-0.134454 -0.00896358 -0.627451 3 67 111
-0.135649 -0.00896358 -0.627451 3 66 107
-0.136844 -0.00896358 -0.627451 4 64 104
-0.138039 -0.00896358 -0.627451 0 58 99
-0.139234 -0.00896358 -0.627451 2 56 100
-0.139552 -0.00890756 -0.623529 0 54 100
-0.14074 -0.00890756 -0.623529 0 51 99
-0.141927 -0.00890756 -0.623529 0 52 103
-0.143115 -0.00890756 -0.623529 0 55 105
-0.143395 -0.00885154 -0.619608 0 58 106
-0.144575 -0.00885154 -0.619608 1 59 106
-0.145755 -0.00885154 -0.619608 2 61 107
-0.146006 -0.00879552 -0.615686 1 62 109
-0.147178 -0.00879552 -0.615686 1 64 109
-0.148351 -0.00879552 -0.615686 2 69 114
-0.149524 -0.00879552 -0.615686 4 73 118
-0.149737 -0.0087395 -0.611765 5 77 123
-0.150902 -0.0087395 -0.611765 5 82 128
