ply
format ascii 1.0
element vertex 1212
property float x
property float y
property float z
property uchar red
property uchar green
property uchar blue
end_header
0.463673 -0.237251 0.733391 183 185 184
0.464871 -0.237251 0.733391 182 184 183
0.466069 -0.237251 0.733391 183 183 183
0.467267 -0.237251 0.733391 184 184 184
0.468465 -0.237251 0.733391 184 184 184
0.469663 -0.237251 0.733391 184 184 184
0.470861 -0.237251 0.733391 184 184 184
0.472059 -0.237251 0.733391 183 183 183
0.473257 -0.237251 0.733391 183 183 183
0.474455 -0.237251 0.733391 183 183 183
0.475653 -0.237251 0.733391 177 178 180
0.476851 -0.237251 0.733391 171 172 174
0.478049 -0.237251 0.733391 171 172 174
0.479248 -0.237251 0.733391 124 126 125
0.480446 -0.237251 0.733391 163 164 166
0.481644 -0.237251 0.733391 163 164 166
0.482842 -0.237251 0.733391 179 180 182
0.484040 -0.237251 0.733391 182 183 185
0.485238 -0.237251 0.733391 182 182 182
0.486436 -0.237251 0.733391 182 182 182
0.487634 -0.237251 0.733391 184 184 184
0.488832 -0.237251 0.733391 184 184 184
0.490030 -0.237251 0.733391 183 183 183
0.491228 -0.237251 0.733391 183 183 183
0.492426 -0.237251 0.733391 183 183 185
0.493624 -0.237251 0.733391 183 183 185
0.494822 -0.237251 0.733391 183 183 185
0.496020 -0.237251 0.733391 183 183 185
0.497218 -0.237251 0.733391 183 183 185
0.498417 -0.237251 0.733391 182 182 182
0.499615 -0.237251 0.733391 181 181 181
0.500813 -0.237251 0.733391 182 182 182
0.502011 -0.237251 0.733391 183 183 183
0.503209 -0.237251 0.733391 183 183 183
0.504407 -0.237251 0.733391 182 182 182
0.505605 -0.237251 0.733391 183 183 183
0.506803 -0.237251 0.733391 182 182 182
0.508001 -0.237251 0.733391 182 182 182
0.509199 -0.237251 0.733391 182 182 182
0.510397 -0.237251 0.733391 182 182 182
0.511595 -0.237251 0.733391 182 182 182
0.512793 -0.237251 0.733391 182 182 182
0.513991 -0.237251 0.733391 182 182 182
0.515189 -0.237251 0.733391 183 183 183
0.516387 -0.237251 0.733391 183 183 183
0.517586 -0.237251 0.733391 183 183 183
0.518784 -0.237251 0.733391 183 183 183
0.519982 -0.237251 0.733391 183 183 183
0.521180 -0.237251 0.733391 182 182 182
0.522378 -0.237251 0.733391 182 182 182
0.523576 -0.237251 0.733391 182 182 182
0.524774 -0.237251 0.733391 182 182 182
0.525972 -0.237251 0.733391 182 182 182
0.527170 -0.237251 0.733391 182 182 182
0.528368 -0.237251 0.733391 182 182 182
-0.083841 -0.236053 0.733391 0 0 0
-0.082643 -0.236053 0.733391 0 0 0
-0.081445 -0.236053 0.733391 0 0 0
-0.080247 -0.236053 0.733391 0 0 0
-0.079049 -0.236053 0.733391 0 0 0
-0.077851 -0.236053 0.733391 0 0 0
-0.076653 -0.236053 0.733391 0 0 0
-0.075455 -0.236053 0.733391 0 0 0
-0.074257 -0.236053 0.733391 0 0 0
-0.073059 -0.236053 0.733391 0 0 0
-0.071861 -0.236053 0.733391 0 0 0
-0.070663 -0.236053 0.733391 0 0 0
-0.069465 -0.236053 0.733391 0 0 0
-0.068266 -0.236053 0.733391 0 0 0
-0.067068 -0.236053 0.733391 0 0 0
-0.065870 -0.236053 0.733391 0 0 0
-0.064672 -0.236053 0.733391 0 0 0
-0.063474 -0.236053 0.733391 0 0 0
-0.057484 -0.236053 0.733391 0 0 0
-0.056286 -0.236053 0.733391 0 0 0
-0.055088 -0.236053 0.733391 0 0 0
-0.053890 -0.236053 0.733391 0 0 0
-0.052692 -0.236053 0.733391 0 0 0
-0.051494 -0.236053 0.733391 0 0 0
-0.050296 -0.236053 0.733391 0 0 0
-0.049098 -0.236053 0.733391 0 0 0
-0.047899 -0.236053 0.733391 0 0 0
-0.046701 -0.236053 0.733391 0 0 0
-0.039669 -0.236986 0.736290 0 0 0
-0.038315 -0.236053 0.733391 0 0 0
-0.037117 -0.236053 0.733391 0 0 0
-0.035919 -0.236053 0.733391 0 0 0
-0.034721 -0.236053 0.733391 0 0 0
-0.033523 -0.236053 0.733391 0 0 0
-0.032325 -0.236053 0.733391 0 0 0
-0.031127 -0.236053 0.733391 0 0 0
-0.029929 -0.236053 0.733391 0 0 0
-0.028730 -0.236053 0.733391 0 0 0
-0.027532 -0.236053 0.733391 0 0 0
-0.026334 -0.236053 0.733391 0 0 0
-0.025136 -0.236053 0.733391 188 185 178
-0.023938 -0.236053 0.733391 189 186 179
-0.022740 -0.236053 0.733391 189 186 179
-0.021542 -0.236053 0.733391 189 186 179
-0.020344 -0.236053 0.733391 188 185 178
-0.019146 -0.236053 0.733391 190 187 180
-0.017948 -0.236053 0.733391 188 188 180
-0.016750 -0.236053 0.733391 189 189 181
-0.015552 -0.236053 0.733391 188 188 180
-0.014354 -0.236053 0.733391 188 188 180
-0.013156 -0.236053 0.733391 186 187 179
-0.011958 -0.236053 0.733391 188 188 180
-0.010760 -0.236053 0.733391 187 188 180
-0.009561 -0.236053 0.733391 187 188 180
-0.008363 -0.236053 0.733391 187 188 180
-0.007165 -0.236053 0.733391 187 188 180
-0.005967 -0.236053 0.733391 186 187 179
-0.004769 -0.236053 0.733391 186 187 179
-0.003571 -0.236053 0.733391 185 188 179
-0.002373 -0.236053 0.733391 182 185 176
-0.001175 -0.236053 0.733391 176 177 169
0.000023 -0.236053 0.733391 160 159 154
0.001221 -0.236053 0.733391 155 152 147
0.002419 -0.236053 0.733391 181 180 175
0.003617 -0.236053 0.733391 185 184 179
0.004815 -0.236053 0.733391 189 188 183
0.006013 -0.236053 0.733391 187 186 181
0.007211 -0.236053 0.733391 186 187 181
0.008409 -0.236053 0.733391 186 187 181
0.009607 -0.236053 0.733391 188 189 183
0.010806 -0.236053 0.733391 188 189 183
0.012004 -0.236053 0.733391 195 196 190
0.013202 -0.236053 0.733391 94 95 89
0.014400 -0.236053 0.733391 68 69 63
0.015598 -0.236053 0.733391 164 165 159
0.016796 -0.236053 0.733391 190 191 185
0.017994 -0.236053 0.733391 186 187 181
0.019192 -0.236053 0.733391 187 188 180
0.020390 -0.236053 0.733391 187 188 180
0.031173 -0.236053 0.733391 189 190 182
0.032371 -0.236053 0.733391 189 190 182
0.033569 -0.236053 0.733391 189 190 182
0.034767 -0.236053 0.733391 190 191 183
0.035965 -0.236053 0.733391 190 191 183
0.037163 -0.236053 0.733391 189 190 182
0.038361 -0.236053 0.733391 189 190 182
0.039559 -0.236053 0.733391 189 190 182
0.040757 -0.236053 0.733391 190 191 183
0.041955 -0.236053 0.733391 190 191 183
0.043153 -0.236053 0.733391 190 191 183
0.044351 -0.236053 0.733391 190 191 183
0.045549 -0.236053 0.733391 190 191 183
0.046747 -0.236053 0.733391 190 191 183
0.047945 -0.236053 0.733391 190 191 183
0.049144 -0.236053 0.733391 190 191 183
0.050342 -0.236053 0.733391 190 191 183
0.062322 -0.236053 0.733391 190 191 185
0.063520 -0.236053 0.733391 190 191 185
0.064718 -0.236053 0.733391 191 192 186
0.065916 -0.236053 0.733391 191 192 186
0.067114 -0.236053 0.733391 190 191 185
0.068312 -0.236053 0.733391 189 190 184
0.069511 -0.236053 0.733391 189 190 184
0.070709 -0.236053 0.733391 190 191 185
0.071907 -0.236053 0.733391 191 192 186
0.073105 -0.236053 0.733391 192 193 187
0.074303 -0.236053 0.733391 192 193 187
0.075501 -0.236053 0.733391 192 193 187
0.076699 -0.236053 0.733391 192 193 187
0.077897 -0.236053 0.733391 191 192 184
0.079095 -0.236053 0.733391 191 192 184
0.080293 -0.236053 0.733391 192 193 185
0.086283 -0.236053 0.733391 192 193 187
0.087481 -0.236053 0.733391 192 193 187
0.088680 -0.236053 0.733391 192 193 187
0.089878 -0.236053 0.733391 193 194 188
0.091076 -0.236053 0.733391 193 194 188
0.092274 -0.236053 0.733391 192 193 187
0.093472 -0.236053 0.733391 192 193 187
0.094670 -0.236053 0.733391 192 193 187
0.095868 -0.236053 0.733391 192 193 187
0.097066 -0.236053 0.733391 192 193 187
0.098264 -0.236053 0.733391 193 194 188
0.099462 -0.236053 0.733391 192 193 187
0.100660 -0.236053 0.733391 192 193 187
0.101858 -0.236053 0.733391 193 194 188
0.104340 -0.238994 0.742527 193 194 188
0.105764 -0.239471 0.744010 192 193 187
0.106979 -0.239471 0.744010 192 193 187
0.108141 -0.239352 0.743638 192 193 187
0.108758 -0.238045 0.739579 193 194 188
0.109047 -0.236053 0.733391 193 194 188
0.110245 -0.236053 0.733391 193 194 189
0.111443 -0.236053 0.733391 193 194 189
0.112641 -0.236053 0.733391 193 194 189
0.113839 -0.236053 0.733391 193 194 189
0.115037 -0.236053 0.733391 193 194 189
0.116235 -0.236053 0.733391 193 194 189
0.117433 -0.236053 0.733391 193 194 189
0.122427 -0.243606 0.756857 194 195 190
0.123663 -0.243606 0.756857 194 195 190
0.124836 -0.243482 0.756473 194 195 190
0.125309 -0.242008 0.751893 193 194 189
0.126409 -0.241764 0.751135 193 194 189
0.127508 -0.241521 0.750378 194 195 190
0.128734 -0.241521 0.750378 194 195 190
0.129959 -0.241521 0.750378 194 195 190
0.130856 -0.240914 0.748494 194 195 190
0.129414 -0.236053 0.733391 194 195 190
0.130612 -0.236053 0.733391 194 195 190
0.131810 -0.236053 0.733391 194 195 190
0.133008 -0.236053 0.733391 194 195 190
0.134206 -0.236053 0.733391 194 195 190
0.135404 -0.236053 0.733391 194 195 190
0.136602 -0.236053 0.733391 194 195 190
0.137800 -0.236053 0.733391 194 195 190
0.138998 -0.236053 0.733391 194 195 190
0.140196 -0.236053 0.733391 194 195 190
0.141394 -0.236053 0.733391 194 195 190
0.142592 -0.236053 0.733391 194 195 190
0.152101 -0.241643 0.750756 194 195 190
0.153327 -0.241643 0.750756 194 195 190
0.154554 -0.241643 0.750756 194 195 190
0.155780 -0.241643 0.750756 194 195 190
0.157006 -0.241643 0.750756 194 195 190
0.158153 -0.241521 0.750378 194 195 190
0.158660 -0.240431 0.746993 194 195 190
0.159560 -0.239950 0.745498 194 195 190
0.160778 -0.239950 0.745498 194 195 190
0.161915 -0.239830 0.745126 194 195 190
0.163132 -0.239830 0.745126 194 195 190
0.164267 -0.239710 0.744753 194 195 190
0.165484 -0.239710 0.744753 194 195 190
0.166534 -0.239471 0.744010 194 195 190
0.167499 -0.239113 0.742897 194 195 190
0.167875 -0.237927 0.739212 194 195 190
0.169083 -0.237927 0.739212 194 195 190
0.170206 -0.237809 0.738845 194 195 190
0.171413 -0.237809 0.738845 195 196 191
0.172706 -0.237927 0.739212 195 196 191
0.174172 -0.238281 0.740314 194 195 190
0.175469 -0.238400 0.740682 194 195 190
0.177207 -0.239113 0.742897 194 195 190
0.178867 -0.239710 0.744753 194 195 190
0.179635 -0.239113 0.742897 194 195 190
0.178534 -0.236053 0.733391 194 195 190
0.179732 -0.236053 0.733391 194 195 190
0.180930 -0.236053 0.733391 194 195 190
0.182128 -0.236053 0.733391 195 196 191
0.183326 -0.236053 0.733391 195 196 191
0.184524 -0.236053 0.733391 195 196 191
0.185723 -0.236053 0.733391 195 196 191
0.186921 -0.236053 0.733391 195 196 191
0.188119 -0.236053 0.733391 195 196 191
0.189317 -0.236053 0.733391 195 196 191
0.207288 -0.236053 0.733391 194 196 193
0.208486 -0.236053 0.733391 193 195 192
0.209684 -0.236053 0.733391 194 196 193
0.210882 -0.236053 0.733391 194 196 193
0.385799 -0.236053 0.733391 185 187 186
0.386997 -0.236053 0.733391 186 187 182
0.388195 -0.236053 0.733391 190 189 185
0.389393 -0.236053 0.733391 188 188 188
0.390591 -0.236053 0.733391 188 188 188
0.391789 -0.236053 0.733391 188 188 188
0.392987 -0.236053 0.733391 188 188 188
0.394185 -0.236053 0.733391 188 188 188
0.395383 -0.236053 0.733391 188 188 188
0.396581 -0.236053 0.733391 188 188 188
0.397779 -0.236053 0.733391 188 188 188
0.398977 -0.236053 0.733391 188 188 188
0.400175 -0.236053 0.733391 188 188 188
0.401374 -0.236053 0.733391 188 188 188
0.402572 -0.236053 0.733391 188 188 188
0.403770 -0.236053 0.733391 188 188 188
0.404968 -0.236053 0.733391 188 188 188
0.406166 -0.236053 0.733391 188 188 188
0.407364 -0.236053 0.733391 188 188 188
0.408562 -0.236053 0.733391 188 188 188
0.409760 -0.236053 0.733391 187 187 187
0.410958 -0.236053 0.733391 187 187 187
0.412156 -0.236053 0.733391 187 187 187
0.413354 -0.236053 0.733391 187 187 187
0.414552 -0.236053 0.733391 188 188 188
0.415750 -0.236053 0.733391 188 188 188
0.416948 -0.236053 0.733391 187 187 187
0.418146 -0.236053 0.733391 186 186 186
0.419344 -0.236053 0.733391 188 188 188
0.420543 -0.236053 0.733391 188 188 188
0.421741 -0.236053 0.733391 188 188 188
0.422939 -0.236053 0.733391 188 188 188
0.424137 -0.236053 0.733391 187 187 187
0.425335 -0.236053 0.733391 187 187 187
0.426533 -0.236053 0.733391 187 187 187
0.427731 -0.236053 0.733391 186 186 186
0.428929 -0.236053 0.733391 186 186 186
0.430127 -0.236053 0.733391 186 186 186
0.431325 -0.236053 0.733391 186 186 186
0.432523 -0.236053 0.733391 187 187 187
0.433721 -0.236053 0.733391 186 186 186
0.434919 -0.236053 0.733391 186 186 186
0.436117 -0.236053 0.733391 186 186 186
0.437315 -0.236053 0.733391 186 186 186
0.438513 -0.236053 0.733391 186 186 186
0.439712 -0.236053 0.733391 186 186 186
0.440910 -0.236053 0.733391 186 186 184
0.442108 -0.236053 0.733391 186 186 184
0.443306 -0.236053 0.733391 186 186 184
0.444504 -0.236053 0.733391 186 186 184
0.445702 -0.236053 0.733391 186 186 184
0.446900 -0.236053 0.733391 186 186 184
0.448098 -0.236053 0.733391 186 186 184
0.449296 -0.236053 0.733391 186 186 184
0.450494 -0.236053 0.733391 186 186 186
0.451692 -0.236053 0.733391 184 184 184
0.452890 -0.236053 0.733391 185 185 185
0.454088 -0.236053 0.733391 185 185 185
0.455286 -0.236053 0.733391 185 185 185
0.456484 -0.236053 0.733391 184 186 185
0.457682 -0.236053 0.733391 183 185 184
0.458880 -0.236053 0.733391 183 185 184
0.460079 -0.236053 0.733391 183 185 184
0.461277 -0.236053 0.733391 183 185 184
0.462475 -0.236053 0.733391 182 184 183
0.463673 -0.236053 0.733391 182 184 183
0.464871 -0.236053 0.733391 181 183 182
0.466069 -0.236053 0.733391 183 183 183
0.467267 -0.236053 0.733391 183 183 183
0.468465 -0.236053 0.733391 183 183 183
0.469663 -0.236053 0.733391 184 184 184
0.470861 -0.236053 0.733391 183 183 183
0.472059 -0.236053 0.733391 183 183 183
0.473257 -0.236053 0.733391 182 182 182
0.474455 -0.236053 0.733391 182 182 182
0.475653 -0.236053 0.733391 177 178 180
0.476851 -0.236053 0.733391 177 178 180
0.478049 -0.236053 0.733391 172 173 175
0.479248 -0.236053 0.733391 124 125 127
0.480446 -0.236053 0.733391 164 165 167
0.481644 -0.236053 0.733391 164 165 167
0.482842 -0.236053 0.733391 179 180 182
0.484040 -0.236053 0.733391 182 183 185
0.485238 -0.236053 0.733391 181 182 184
0.486436 -0.236053 0.733391 182 182 184
0.487634 -0.236053 0.733391 184 184 186
0.488832 -0.236053 0.733391 184 184 184
0.490030 -0.236053 0.733391 183 183 183
0.491228 -0.236053 0.733391 183 183 183
0.492426 -0.236053 0.733391 183 183 185
0.493624 -0.236053 0.733391 183 183 185
0.494822 -0.236053 0.733391 183 183 183
0.496020 -0.236053 0.733391 183 183 183
0.497218 -0.236053 0.733391 182 182 182
0.498417 -0.236053 0.733391 182 182 182
0.499615 -0.236053 0.733391 182 182 182
0.500813 -0.236053 0.733391 182 182 182
0.502011 -0.236053 0.733391 182 182 182
0.503209 -0.236053 0.733391 182 182 182
0.504407 -0.236053 0.733391 182 182 182
0.505605 -0.236053 0.733391 182 182 182
0.506803 -0.236053 0.733391 182 182 182
0.508001 -0.236053 0.733391 182 182 182
0.509199 -0.236053 0.733391 182 182 182
0.510397 -0.236053 0.733391 182 182 182
0.511595 -0.236053 0.733391 182 182 182
0.512793 -0.236053 0.733391 182 182 182
0.513991 -0.236053 0.733391 182 182 182
0.515189 -0.236053 0.733391 182 182 182
0.516387 -0.236053 0.733391 183 183 183
0.517586 -0.236053 0.733391 183 183 183
0.518784 -0.236053 0.733391 183 183 183
0.519982 -0.236053 0.733391 182 182 182
0.521180 -0.236053 0.733391 182 182 182
0.522378 -0.236053 0.733391 182 182 182
0.523576 -0.236053 0.733391 182 182 182
0.524774 -0.236053 0.733391 182 182 182
0.525972 -0.236053 0.733391 182 182 182
0.527170 -0.236053 0.733391 182 182 182
0.528368 -0.236053 0.733391 182 182 182
-0.083841 -0.234855 0.733391 0 0 0
-0.082643 -0.234855 0.733391 0 0 0
-0.081445 -0.234855 0.733391 0 0 0
-0.080247 -0.234855 0.733391 0 0 0
-0.079049 -0.234855 0.733391 0 0 0
-0.077851 -0.234855 0.733391 0 0 0
-0.076653 -0.234855 0.733391 0 0 0
-0.075455 -0.234855 0.733391 0 0 0
-0.074257 -0.234855 0.733391 0 0 0
-0.073059 -0.234855 0.733391 0 0 0
-0.071861 -0.234855 0.733391 0 0 0
-0.070663 -0.234855 0.733391 0 0 0
-0.069465 -0.234855 0.733391 0 0 0
-0.068266 -0.234855 0.733391 0 0 0
-0.067068 -0.234855 0.733391 0 0 0
-0.065870 -0.234855 0.733391 0 0 0
-0.064672 -0.234855 0.733391 0 0 0
-0.063474 -0.234855 0.733391 0 0 0
-0.057484 -0.234855 0.733391 0 0 0
-0.056286 -0.234855 0.733391 0 0 0
-0.055088 -0.234855 0.733391 0 0 0
-0.053890 -0.234855 0.733391 0 0 0
-0.052692 -0.234855 0.733391 0 0 0
-0.051494 -0.234855 0.733391 0 0 0
-0.050296 -0.234855 0.733391 0 0 0
-0.049098 -0.234855 0.733391 0 0 0
-0.047899 -0.234855 0.733391 0 0 0
-0.046701 -0.234855 0.733391 0 0 0
-0.039513 -0.234855 0.733391 0 0 0
-0.038315 -0.234855 0.733391 0 0 0
-0.037117 -0.234855 0.733391 0 0 0
-0.035919 -0.234855 0.733391 0 0 0
-0.034721 -0.234855 0.733391 0 0 0
-0.033523 -0.234855 0.733391 0 0 0
-0.032325 -0.234855 0.733391 0 0 0
-0.031127 -0.234855 0.733391 0 0 0
-0.029929 -0.234855 0.733391 0 0 0
-0.028730 -0.234855 0.733391 0 0 0
-0.027532 -0.234855 0.733391 186 186 178
-0.026334 -0.234855 0.733391 188 185 178
-0.025136 -0.234855 0.733391 188 185 178
-0.023938 -0.234855 0.733391 189 186 179
-0.022740 -0.234855 0.733391 189 186 179
-0.021542 -0.234855 0.733391 187 187 179
-0.020344 -0.234855 0.733391 187 187 179
-0.019146 -0.234855 0.733391 188 188 180
-0.017948 -0.234855 0.733391 187 188 180
-0.016750 -0.234855 0.733391 189 189 181
-0.015552 -0.234855 0.733391 187 188 180
-0.014354 -0.234855 0.733391 187 188 180
-0.013156 -0.234855 0.733391 186 189 180
-0.011958 -0.234855 0.733391 187 188 180
-0.010760 -0.234855 0.733391 186 189 180
-0.009561 -0.234855 0.733391 187 188 180
-0.008363 -0.234855 0.733391 187 188 180
-0.007165 -0.234855 0.733391 186 189 180
-0.005967 -0.234855 0.733391 185 188 179
-0.004769 -0.234855 0.733391 185 188 179
-0.003571 -0.234855 0.733391 185 188 179
-0.002373 -0.234855 0.733391 182 185 176
-0.001175 -0.234855 0.733391 176 177 169
0.000023 -0.234855 0.733391 161 160 155
0.001221 -0.234855 0.733391 153 150 145
0.002419 -0.234855 0.733391 181 180 175
0.003617 -0.234855 0.733391 185 184 179
0.004815 -0.234855 0.733391 188 187 182
0.006013 -0.234855 0.733391 187 186 181
0.007211 -0.234855 0.733391 187 186 181
0.008409 -0.234855 0.733391 187 186 181
0.009607 -0.234855 0.733391 188 189 183
0.010806 -0.234855 0.733391 188 189 183
0.012004 -0.234855 0.733391 194 195 189
0.013202 -0.234855 0.733391 94 95 89
0.014400 -0.234855 0.733391 68 69 63
0.015598 -0.234855 0.733391 166 167 161
0.016796 -0.234855 0.733391 189 190 184
0.017994 -0.234855 0.733391 186 187 181
0.019192 -0.234855 0.733391 186 187 179
0.020390 -0.234855 0.733391 187 188 180
0.032371 -0.234855 0.733391 189 190 182
0.033569 -0.234855 0.733391 189 190 182
0.034767 -0.234855 0.733391 190 191 183
0.035965 -0.234855 0.733391 190 191 183
0.037163 -0.234855 0.733391 189 190 182
0.038361 -0.234855 0.733391 189 190 182
0.039559 -0.234855 0.733391 189 190 182
0.040757 -0.234855 0.733391 190 191 183
0.041955 -0.234855 0.733391 190 191 183
0.043153 -0.234855 0.733391 190 191 183
0.044351 -0.234855 0.733391 190 191 183
0.045549 -0.234855 0.733391 190 191 183
0.046747 -0.234855 0.733391 190 191 183
0.047945 -0.234855 0.733391 191 192 184
0.049144 -0.234855 0.733391 190 191 183
0.050342 -0.234855 0.733391 190 191 183
0.051540 -0.234855 0.733391 190 191 183
0.062322 -0.234855 0.733391 190 191 185
0.063520 -0.234855 0.733391 189 190 184
0.064718 -0.234855 0.733391 189 190 184
0.065916 -0.234855 0.733391 190 191 185
0.067114 -0.234855 0.733391 189 190 184
0.068312 -0.234855 0.733391 190 191 185
0.069511 -0.234855 0.733391 190 191 185
0.070709 -0.234855 0.733391 190 191 185
0.071907 -0.234855 0.733391 191 192 186
0.073105 -0.234855 0.733391 192 193 187
0.074303 -0.234855 0.733391 192 193 187
0.075501 -0.234855 0.733391 192 193 187
0.076699 -0.234855 0.733391 192 193 187
0.077897 -0.234855 0.733391 192 193 185
0.079095 -0.234855 0.733391 192 193 185
0.080293 -0.234855 0.733391 192 193 185
0.081491 -0.234855 0.733391 191 192 184
0.082689 -0.234855 0.733391 191 192 186
0.085085 -0.234855 0.733391 192 193 187
0.086283 -0.234855 0.733391 193 194 188
0.087481 -0.234855 0.733391 192 193 187
0.088680 -0.234855 0.733391 192 193 187
0.089878 -0.234855 0.733391 192 193 187
0.091076 -0.234855 0.733391 193 194 188
0.092274 -0.234855 0.733391 193 194 188
0.093472 -0.234855 0.733391 192 193 187
0.094670 -0.234855 0.733391 192 193 187
0.095868 -0.234855 0.733391 192 193 187
0.097066 -0.234855 0.733391 192 193 187
0.098264 -0.234855 0.733391 193 194 188
0.099462 -0.234855 0.733391 192 193 187
0.100660 -0.234855 0.733391 192 193 187
0.101858 -0.234855 0.733391 192 193 187
0.103056 -0.234855 0.733391 192 193 187
0.105134 -0.236837 0.739579 192 193 187
0.106819 -0.237899 0.742897 192 193 187
0.107550 -0.236837 0.739579 192 193 187
0.107849 -0.234855 0.733391 193 194 189
0.109047 -0.234855 0.733391 193 194 189
0.110245 -0.234855 0.733391 193 194 189
0.111443 -0.234855 0.733391 194 195 190
0.112641 -0.234855 0.733391 193 194 189
0.113839 -0.234855 0.733391 193 194 189
0.115037 -0.234855 0.733391 193 194 189
0.116235 -0.234855 0.733391 194 195 190
0.117433 -0.234855 0.733391 194 195 190
0.122427 -0.242370 0.756857 193 194 189
0.123663 -0.242370 0.756857 193 194 189
0.124836 -0.242247 0.756473 193 194 189
0.125309 -0.240780 0.751893 193 194 189
0.126409 -0.240537 0.751135 193 194 189
0.127508 -0.240295 0.750378 193 194 189
0.128734 -0.240295 0.750378 194 195 190
0.129959 -0.240295 0.750378 194 195 190
0.128216 -0.234855 0.733391 194 195 190
0.129414 -0.234855 0.733391 194 195 190
0.130612 -0.234855 0.733391 194 195 190
0.131810 -0.234855 0.733391 194 195 190
0.133008 -0.234855 0.733391 194 195 190
0.134206 -0.234855 0.733391 194 195 190
0.135404 -0.234855 0.733391 194 195 190
0.136602 -0.234855 0.733391 194 195 190
0.137800 -0.234855 0.733391 194 195 190
0.138998 -0.234855 0.733391 193 194 189
0.140196 -0.234855 0.733391 194 195 190
0.141394 -0.234855 0.733391 193 194 189
0.142592 -0.234855 0.733391 194 195 190
0.152177 -0.240537 0.751135 194 195 190
0.153404 -0.240537 0.751135 194 195 190
0.154554 -0.240416 0.750756 194 195 190
0.155780 -0.240416 0.750756 194 195 190
0.157006 -0.240416 0.750756 194 195 190
0.158153 -0.240295 0.750378 194 195 190
0.158660 -0.239211 0.746993 194 195 190
0.159560 -0.238732 0.745498 194 195 190
0.160778 -0.238732 0.745498 194 195 190
0.161915 -0.238613 0.745126 194 195 190
0.162888 -0.238256 0.744010 194 195 190
0.164103 -0.238256 0.744010 194 195 190
0.165319 -0.238256 0.744010 194 195 190
0.166451 -0.238137 0.743638 194 195 190
0.167499 -0.237899 0.742897 194 195 190
0.167875 -0.236719 0.739212 194 195 190
0.169083 -0.236719 0.739212 194 195 190
0.170206 -0.236602 0.738845 194 195 190
0.171413 -0.236602 0.738845 195 196 191
0.172706 -0.236719 0.739212 194 195 190
0.174172 -0.237072 0.740314 194 195 190
0.175731 -0.237544 0.741788 194 195 190
0.177207 -0.237899 0.742897 193 194 189
0.178421 -0.237899 0.742897 194 195 190
0.179635 -0.237899 0.742897 194 195 190
0.178534 -0.234855 0.733391 195 196 191
0.179732 -0.234855 0.733391 194 195 190
0.180930 -0.234855 0.733391 194 195 190
0.182128 -0.234855 0.733391 194 195 190
0.183326 -0.234855 0.733391 195 196 191
0.184524 -0.234855 0.733391 194 194 192
0.185723 -0.234855 0.733391 195 195 193
0.186921 -0.234855 0.733391 195 196 191
0.188119 -0.234855 0.733391 194 195 190
0.189317 -0.234855 0.733391 194 195 190
0.207288 -0.234855 0.733391 193 195 192
0.208486 -0.234855 0.733391 193 195 194
0.209684 -0.234855 0.733391 193 195 194
0.210882 -0.234855 0.733391 193 195 194
0.385799 -0.234855 0.733391 186 188 185
0.386997 -0.234855 0.733391 186 187 182
0.388195 -0.234855 0.733391 188 189 184
0.389393 -0.234855 0.733391 188 189 184
0.390591 -0.234855 0.733391 188 188 188
0.391789 -0.234855 0.733391 188 188 188
0.392987 -0.234855 0.733391 188 188 188
0.394185 -0.234855 0.733391 188 188 188
0.395383 -0.234855 0.733391 188 188 188
0.396581 -0.234855 0.733391 188 188 188
0.397779 -0.234855 0.733391 188 188 188
0.398977 -0.234855 0.733391 188 188 188
0.400175 -0.234855 0.733391 188 188 188
0.401374 -0.234855 0.733391 187 187 187
0.402572 -0.234855 0.733391 188 188 188
0.403770 -0.234855 0.733391 188 188 188
0.404968 -0.234855 0.733391 188 188 188
0.406166 -0.234855 0.733391 187 187 187
0.407364 -0.234855 0.733391 187 187 187
0.408562 -0.234855 0.733391 187 187 187
0.409760 -0.234855 0.733391 187 187 187
0.410958 -0.234855 0.733391 187 187 187
0.412156 -0.234855 0.733391 187 187 187
0.413354 -0.234855 0.733391 187 187 187
0.414552 -0.234855 0.733391 187 187 187
0.415750 -0.234855 0.733391 187 187 187
0.416948 -0.234855 0.733391 187 187 187
0.418146 -0.234855 0.733391 187 187 187
0.419344 -0.234855 0.733391 187 187 187
0.420543 -0.234855 0.733391 187 187 187
0.421741 -0.234855 0.733391 188 188 188
0.422939 -0.234855 0.733391 188 188 188
0.424137 -0.234855 0.733391 188 188 188
0.425335 -0.234855 0.733391 187 187 187
0.426533 -0.234855 0.733391 186 186 186
0.427731 -0.234855 0.733391 186 186 186
0.428929 -0.234855 0.733391 186 186 186
0.430127 -0.234855 0.733391 186 186 186
0.431325 -0.234855 0.733391 186 186 186
0.432523 -0.234855 0.733391 186 186 186
0.433721 -0.234855 0.733391 186 186 186
0.434919 -0.234855 0.733391 186 186 186
0.436117 -0.234855 0.733391 186 186 186
0.437315 -0.234855 0.733391 186 186 186
0.438513 -0.234855 0.733391 186 186 186
0.439712 -0.234855 0.733391 186 186 186
0.440910 -0.234855 0.733391 185 185 183
0.442108 -0.234855 0.733391 186 186 184
0.443306 -0.234855 0.733391 185 185 183
0.444504 -0.234855 0.733391 186 186 184
0.445702 -0.234855 0.733391 186 186 184
0.446900 -0.234855 0.733391 186 186 184
0.448098 -0.234855 0.733391 186 186 184
0.449296 -0.234855 0.733391 186 186 184
0.450494 -0.234855 0.733391 186 186 186
0.451692 -0.234855 0.733391 184 184 184
0.452890 -0.234855 0.733391 184 186 185
0.454088 -0.234855 0.733391 184 186 185
0.455286 -0.234855 0.733391 185 187 186
0.456484 -0.234855 0.733391 184 186 185
0.457682 -0.234855 0.733391 183 185 184
0.458880 -0.234855 0.733391 183 185 184
0.460079 -0.234855 0.733391 183 185 184
0.461277 -0.234855 0.733391 183 185 184
0.462475 -0.234855 0.733391 182 184 183
0.463673 -0.234855 0.733391 182 184 183
0.464871 -0.234855 0.733391 181 183 182
0.466069 -0.234855 0.733391 183 183 183
0.467267 -0.234855 0.733391 183 183 183
0.468465 -0.234855 0.733391 183 183 183
0.469663 -0.234855 0.733391 184 184 184
0.470861 -0.234855 0.733391 184 184 184
0.472059 -0.234855 0.733391 183 183 183
0.473257 -0.234855 0.733391 181 183 182
0.474455 -0.234855 0.733391 180 182 181
0.475653 -0.234855 0.733391 180 182 181
0.476851 -0.234855 0.733391 177 178 180
0.478049 -0.234855 0.733391 172 173 175
0.479248 -0.234855 0.733391 125 126 128
0.480446 -0.234855 0.733391 125 126 128
0.481644 -0.234855 0.733391 164 165 167
0.482842 -0.234855 0.733391 179 180 182
0.484040 -0.234855 0.733391 179 180 182
0.485238 -0.234855 0.733391 181 182 184
0.486436 -0.234855 0.733391 182 182 184
0.487634 -0.234855 0.733391 184 184 186
0.488832 -0.234855 0.733391 184 184 186
0.490030 -0.234855 0.733391 183 183 183
0.491228 -0.234855 0.733391 182 182 182
0.492426 -0.234855 0.733391 182 182 182
0.493624 -0.234855 0.733391 182 182 182
0.494822 -0.234855 0.733391 183 183 183
0.496020 -0.234855 0.733391 183 183 183
0.497218 -0.234855 0.733391 183 183 183
0.498417 -0.234855 0.733391 182 182 182
0.499615 -0.234855 0.733391 182 182 182
0.500813 -0.234855 0.733391 182 182 182
0.502011 -0.234855 0.733391 182 182 182
0.503209 -0.234855 0.733391 182 182 182
0.504407 -0.234855 0.733391 182 182 182
0.505605 -0.234855 0.733391 182 182 182
0.506803 -0.234855 0.733391 182 182 182
0.508001 -0.234855 0.733391 182 182 182
0.509199 -0.234855 0.733391 182 182 182
0.510397 -0.234855 0.733391 182 182 182
0.511595 -0.234855 0.733391 182 182 182
0.512793 -0.234855 0.733391 182 182 182
0.513991 -0.234855 0.733391 182 182 182
0.515189 -0.234855 0.733391 182 182 182
0.516387 -0.234855 0.733391 183 183 183
0.517586 -0.234855 0.733391 183 183 183
0.518784 -0.234855 0.733391 183 183 183
0.519982 -0.234855 0.733391 182 182 182
0.521180 -0.234855 0.733391 182 182 182
0.522378 -0.234855 0.733391 182 182 182
0.523576 -0.234855 0.733391 182 182 182
0.524774 -0.234855 0.733391 182 182 182
0.525972 -0.234855 0.733391 182 182 182
0.527170 -0.234855 0.733391 182 182 182
0.528368 -0.234855 0.733391 182 182 182
-0.083841 -0.233657 0.733391 0 0 0
-0.082643 -0.233657 0.733391 0 0 0
-0.081445 -0.233657 0.733391 0 0 0
-0.080247 -0.233657 0.733391 0 0 0
-0.079049 -0.233657 0.733391 0 0 0
-0.077851 -0.233657 0.733391 0 0 0
-0.076653 -0.233657 0.733391 0 0 0
-0.075455 -0.233657 0.733391 0 0 0
-0.074257 -0.233657 0.733391 0 0 0
-0.073059 -0.233657 0.733391 0 0 0
-0.071861 -0.233657 0.733391 0 0 0
-0.070663 -0.233657 0.733391 0 0 0
-0.069465 -0.233657 0.733391 0 0 0
-0.068266 -0.233657 0.733391 0 0 0
-0.067068 -0.233657 0.733391 0 0 0
-0.065870 -0.233657 0.733391 0 0 0
-0.064672 -0.233657 0.733391 0 0 0
-0.063474 -0.233657 0.733391 0 0 0
-0.057484 -0.233657 0.733391 0 0 0
-0.056286 -0.233657 0.733391 0 0 0
-0.055088 -0.233657 0.733391 0 0 0
-0.053890 -0.233657 0.733391 0 0 0
-0.052692 -0.233657 0.733391 0 0 0
-0.051494 -0.233657 0.733391 0 0 0
-0.050296 -0.233657 0.733391 0 0 0
-0.049098 -0.233657 0.733391 0 0 0
-0.047899 -0.233657 0.733391 0 0 0
-0.046701 -0.233657 0.733391 0 0 0
-0.041218 -0.236568 0.742527 0 0 0
-0.039513 -0.233657 0.733391 0 0 0
-0.038315 -0.233657 0.733391 0 0 0
-0.037117 -0.233657 0.733391 0 0 0
-0.035919 -0.233657 0.733391 0 0 0
-0.034721 -0.233657 0.733391 0 0 0
-0.033523 -0.233657 0.733391 0 0 0
-0.032325 -0.233657 0.733391 0 0 0
-0.031127 -0.233657 0.733391 185 186 178
-0.029929 -0.233657 0.733391 187 187 179
-0.028730 -0.233657 0.733391 187 187 179
-0.027532 -0.233657 0.733391 187 187 179
-0.026334 -0.233657 0.733391 187 187 179
-0.025136 -0.233657 0.733391 187 187 179
-0.023938 -0.233657 0.733391 187 187 179
-0.022740 -0.233657 0.733391 187 187 179
-0.021542 -0.233657 0.733391 187 187 179
-0.020344 -0.233657 0.733391 187 187 179
-0.019146 -0.233657 0.733391 188 188 180
-0.017948 -0.233657 0.733391 186 189 180
-0.016750 -0.233657 0.733391 187 188 180
-0.015552 -0.233657 0.733391 186 189 180
-0.014354 -0.233657 0.733391 186 189 180
-0.013156 -0.233657 0.733391 186 189 180
-0.011958 -0.233657 0.733391 186 189 180
-0.010760 -0.233657 0.733391 186 189 180
-0.009561 -0.233657 0.733391 186 189 180
-0.008363 -0.233657 0.733391 186 189 180
-0.007165 -0.233657 0.733391 186 189 180
-0.005967 -0.233657 0.733391 186 189 180
-0.004769 -0.233657 0.733391 185 188 179
-0.003571 -0.233657 0.733391 186 187 179
-0.002373 -0.233657 0.733391 182 183 175
-0.001175 -0.233657 0.733391 175 176 168
0.000023 -0.233657 0.733391 163 160 155
0.001221 -0.233657 0.733391 153 150 145
0.002419 -0.233657 0.733391 183 180 175
0.003617 -0.233657 0.733391 187 184 179
0.004815 -0.233657 0.733391 188 187 182
0.006013 -0.233657 0.733391 187 186 181
0.007211 -0.233657 0.733391 187 186 181
0.008409 -0.233657 0.733391 187 186 181
0.009607 -0.233657 0.733391 189 188 183
0.010806 -0.233657 0.733391 188 187 182
0.012004 -0.233657 0.733391 194 195 189
0.013202 -0.233657 0.733391 94 95 89
0.014400 -0.233657 0.733391 67 68 62
0.015598 -0.233657 0.733391 167 168 162
0.016796 -0.233657 0.733391 189 188 183
0.017994 -0.233657 0.733391 187 186 181
0.019192 -0.233657 0.733391 186 187 179
0.033569 -0.233657 0.733391 189 190 182
0.034767 -0.233657 0.733391 190 191 183
0.035965 -0.233657 0.733391 190 191 183
0.037163 -0.233657 0.733391 189 190 182
0.038361 -0.233657 0.733391 189 190 182
0.039559 -0.233657 0.733391 189 190 182
0.040757 -0.233657 0.733391 190 191 183
0.041955 -0.233657 0.733391 190 191 183
0.043153 -0.233657 0.733391 190 191 183
0.044351 -0.233657 0.733391 190 191 183
0.045549 -0.233657 0.733391 190 191 183
0.046747 -0.233657 0.733391 190 191 183
0.047945 -0.233657 0.733391 191 192 184
0.049144 -0.233657 0.733391 190 191 183
0.050342 -0.233657 0.733391 190 191 183
0.051540 -0.233657 0.733391 189 190 182
0.063520 -0.233657 0.733391 190 191 185
0.064718 -0.233657 0.733391 190 191 185
0.065916 -0.233657 0.733391 190 191 185
0.067114 -0.233657 0.733391 190 191 185
0.068312 -0.233657 0.733391 190 191 185
0.069511 -0.233657 0.733391 190 191 185
0.070709 -0.233657 0.733391 190 191 185
0.071907 -0.233657 0.733391 190 191 185
0.073105 -0.233657 0.733391 191 192 186
0.074303 -0.233657 0.733391 191 192 186
0.075501 -0.233657 0.733391 191 192 186
0.076699 -0.233657 0.733391 191 192 186
0.077897 -0.233657 0.733391 192 193 185
0.079095 -0.233657 0.733391 192 193 185
0.080293 -0.233657 0.733391 192 193 185
0.081491 -0.233657 0.733391 192 193 187
0.082689 -0.233657 0.733391 192 193 187
0.083887 -0.233657 0.733391 192 193 187
0.085085 -0.233657 0.733391 191 192 186
0.086283 -0.233657 0.733391 191 192 186
0.087481 -0.233657 0.733391 192 193 187
0.088680 -0.233657 0.733391 192 193 187
0.089878 -0.233657 0.733391 192 193 187
0.091076 -0.233657 0.733391 193 194 188
0.092274 -0.233657 0.733391 193 194 188
0.093472 -0.233657 0.733391 192 193 187
0.094670 -0.233657 0.733391 192 193 187
0.095868 -0.233657 0.733391 192 193 187
0.097066 -0.233657 0.733391 192 193 187
0.098264 -0.233657 0.733391 192 193 187
0.099462 -0.233657 0.733391 192 193 187
0.100660 -0.233657 0.733391 192 193 187
0.101858 -0.233657 0.733391 192 193 187
0.103056 -0.233657 0.733391 192 193 187
0.104254 -0.233657 0.733391 192 193 187
0.105452 -0.233657 0.733391 192 193 187
0.106650 -0.233657 0.733391 192 193 187
0.107849 -0.233657 0.733391 192 193 187
0.109047 -0.233657 0.733391 194 195 190
0.110245 -0.233657 0.733391 194 195 190
0.111443 -0.233657 0.733391 193 194 189
0.112641 -0.233657 0.733391 193 194 189
0.113839 -0.233657 0.733391 193 194 189
0.115037 -0.233657 0.733391 193 194 189
0.116235 -0.233657 0.733391 193 194 189
0.120945 -0.240644 0.755323 193 194 189
0.122365 -0.241011 0.756473 193 194 189
0.123600 -0.241011 0.756473 193 194 189
0.124646 -0.240644 0.755323 193 194 189
0.125245 -0.239431 0.751513 193 194 189
0.126346 -0.239190 0.750756 193 194 189
0.127508 -0.239069 0.750378 193 194 189
0.128734 -0.239069 0.750378 193 194 189
0.129698 -0.238589 0.748870 194 195 190
0.128216 -0.233657 0.733391 194 195 190
0.129414 -0.233657 0.733391 194 195 190
0.130612 -0.233657 0.733391 194 195 190
0.131810 -0.233657 0.733391 194 195 190
0.133008 -0.233657 0.733391 194 195 190
0.134206 -0.233657 0.733391 194 195 190
0.135404 -0.233657 0.733391 194 195 190
0.136602 -0.233657 0.733391 194 195 190
0.137800 -0.233657 0.733391 193 194 189
0.138998 -0.233657 0.733391 193 194 189
0.140196 -0.233657 0.733391 193 194 189
0.141394 -0.233657 0.733391 193 194 189
0.142592 -0.233657 0.733391 193 194 189
0.153404 -0.239310 0.751135 194 195 190
0.154631 -0.239310 0.751135 194 195 190
0.155780 -0.239190 0.750756 194 195 190
0.156927 -0.239069 0.750378 194 195 190
0.157835 -0.238589 0.748870 194 195 190
0.158660 -0.237991 0.746993 194 195 190
0.159560 -0.237515 0.745498 194 195 190
0.160698 -0.237396 0.745126 194 195 190
0.161592 -0.236922 0.743638 194 195 190
0.162807 -0.236922 0.743638 194 195 190
0.164021 -0.236922 0.743638 194 195 190
0.165236 -0.236922 0.743638 194 195 190
0.166451 -0.236922 0.743638 194 195 190
0.166999 -0.235980 0.740682 194 195 190
0.167875 -0.235512 0.739212 194 195 190
0.169083 -0.235512 0.739212 193 194 189
0.170206 -0.235395 0.738845 194 195 190
0.171413 -0.235395 0.738845 195 196 191
0.172706 -0.235512 0.739212 194 195 190
0.174172 -0.235863 0.740314 194 195 190
0.175731 -0.236332 0.741788 193 194 189
0.177207 -0.236686 0.742897 193 194 189
0.178421 -0.236686 0.742897 193 194 189
0.178743 -0.235512 0.739212 193 194 189
0.178534 -0.233657 0.733391 194 195 190
0.179732 -0.233657 0.733391 194 195 190
0.180930 -0.233657 0.733391 194 195 190
0.182128 -0.233657 0.733391 194 194 192
0.183326 -0.233657 0.733391 194 194 192
0.184524 -0.233657 0.733391 194 194 192
0.185723 -0.233657 0.733391 194 194 192
0.186921 -0.233657 0.733391 194 194 192
0.188119 -0.233657 0.733391 194 195 190
0.189317 -0.233657 0.733391 194 194 192
0.207288 -0.233657 0.733391 193 195 194
0.208486 -0.233657 0.733391 193 195 194
0.209684 -0.233657 0.733391 193 195 194
0.210882 -0.233657 0.733391 193 195 194
0.385799 -0.233657 0.733391 186 188 185
0.386997 -0.233657 0.733391 186 187 182
0.388195 -0.233657 0.733391 185 186 181
0.389393 -0.233657 0.733391 188 189 184
0.390591 -0.233657 0.733391 188 188 186
0.391789 -0.233657 0.733391 188 188 188
0.392987 -0.233657 0.733391 188 188 188
0.394185 -0.233657 0.733391 188 188 188
0.395383 -0.233657 0.733391 187 187 187
0.396581 -0.233657 0.733391 188 188 188
0.397779 -0.233657 0.733391 187 187 187
0.398977 -0.233657 0.733391 187 187 187
0.400175 -0.233657 0.733391 187 187 187
0.401374 -0.233657 0.733391 187 187 187
0.402572 -0.233657 0.733391 187 187 187
0.403770 -0.233657 0.733391 187 187 187
0.404968 -0.233657 0.733391 187 187 187
0.406166 -0.233657 0.733391 187 187 187
0.407364 -0.233657 0.733391 187 187 187
0.408562 -0.233657 0.733391 187 187 187
0.409760 -0.233657 0.733391 187 187 187
0.410958 -0.233657 0.733391 187 187 187
0.412156 -0.233657 0.733391 187 187 187
0.413354 -0.233657 0.733391 187 187 187
0.414552 -0.233657 0.733391 187 187 187
0.415750 -0.233657 0.733391 187 187 187
0.416948 -0.233657 0.733391 187 187 187
0.418146 -0.233657 0.733391 187 187 187
0.419344 -0.233657 0.733391 187 187 187
0.420543 -0.233657 0.733391 187 187 187
0.421741 -0.233657 0.733391 188 188 188
0.422939 -0.233657 0.733391 188 188 188
0.424137 -0.233657 0.733391 187 187 187
0.425335 -0.233657 0.733391 187 187 187
0.426533 -0.233657 0.733391 186 186 186
0.427731 -0.233657 0.733391 186 186 186
0.428929 -0.233657 0.733391 186 186 186
0.430127 -0.233657 0.733391 186 186 186
0.431325 -0.233657 0.733391 186 186 186
0.432523 -0.233657 0.733391 186 186 186
0.433721 -0.233657 0.733391 186 186 186
0.434919 -0.233657 0.733391 186 186 186
0.436117 -0.233657 0.733391 186 186 186
0.437315 -0.233657 0.733391 186 186 186
0.438513 -0.233657 0.733391 186 186 186
0.439712 -0.233657 0.733391 185 187 186
0.440910 -0.233657 0.733391 185 185 183
0.442108 -0.233657 0.733391 185 185 183
0.443306 -0.233657 0.733391 185 185 183
0.444504 -0.233657 0.733391 185 185 183
0.445702 -0.233657 0.733391 186 186 184
0.446900 -0.233657 0.733391 186 186 184
0.448098 -0.233657 0.733391 186 186 184
0.449296 -0.233657 0.733391 185 187 186
0.450494 -0.233657 0.733391 185 187 186
0.451692 -0.233657 0.733391 185 187 186
0.452890 -0.233657 0.733391 184 186 185
0.454088 -0.233657 0.733391 184 186 185
0.455286 -0.233657 0.733391 184 186 185
0.456484 -0.233657 0.733391 184 186 185
0.457682 -0.233657 0.733391 183 185 184
0.458880 -0.233657 0.733391 182 184 183
0.460079 -0.233657 0.733391 182 184 183
0.461277 -0.233657 0.733391 182 184 183
0.462475 -0.233657 0.733391 182 184 183
0.463673 -0.233657 0.733391 182 184 183
0.464871 -0.233657 0.733391 181 183 182
0.466069 -0.233657 0.733391 181 183 182
0.467267 -0.233657 0.733391 183 183 183
0.468465 -0.233657 0.733391 183 183 183
0.469663 -0.233657 0.733391 183 183 183
0.470861 -0.233657 0.733391 183 183 183
0.472059 -0.233657 0.733391 183 183 183
0.473257 -0.233657 0.733391 180 182 181
0.474455 -0.233657 0.733391 180 182 181
0.475653 -0.233657 0.733391 180 182 181
0.476851 -0.233657 0.733391 177 178 180
0.478049 -0.233657 0.733391 172 173 175
0.479248 -0.233657 0.733391 172 173 175
0.480446 -0.233657 0.733391 126 127 129
0.481644 -0.233657 0.733391 164 165 167
0.482842 -0.233657 0.733391 179 180 182
0.484040 -0.233657 0.733391 179 180 182
0.485238 -0.233657 0.733391 181 182 184
0.486436 -0.233657 0.733391 182 182 184
0.487634 -0.233657 0.733391 184 184 184
0.488832 -0.233657 0.733391 184 184 184
0.490030 -0.233657 0.733391 182 182 182
0.491228 -0.233657 0.733391 182 182 182
0.492426 -0.233657 0.733391 183 183 183
0.493624 -0.233657 0.733391 182 182 182
0.494822 -0.233657 0.733391 183 183 183
0.496020 -0.233657 0.733391 183 183 183
0.497218 -0.233657 0.733391 183 183 183
0.498417 -0.233657 0.733391 182 182 182
0.499615 -0.233657 0.733391 182 182 182
0.500813 -0.233657 0.733391 182 182 182
0.502011 -0.233657 0.733391 182 182 182
0.503209 -0.233657 0.733391 182 182 182
0.504407 -0.233657 0.733391 182 182 182
0.505605 -0.233657 0.733391 182 182 182
0.506803 -0.233657 0.733391 182 182 182
0.508001 -0.233657 0.733391 182 182 182
0.509199 -0.233657 0.733391 182 182 182
0.510397 -0.233657 0.733391 182 182 182
0.511595 -0.233657 0.733391 182 182 182
0.512793 -0.233657 0.733391 182 182 182
0.513991 -0.233657 0.733391 182 182 182
0.515189 -0.233657 0.733391 182 182 182
0.516387 -0.233657 0.733391 183 183 183
0.517586 -0.233657 0.733391 183 183 183
0.518784 -0.233657 0.733391 183 183 183
0.519982 -0.233657 0.733391 182 182 182
0.521180 -0.233657 0.733391 182 182 182
0.522378 -0.233657 0.733391 182 182 182
0.523576 -0.233657 0.733391 182 182 182
0.524774 -0.233657 0.733391 182 182 182
0.525972 -0.233657 0.733391 183 183 183
0.527170 -0.233657 0.733391 183 183 183
0.528368 -0.233657 0.733391 182 182 182
-0.083841 -0.232459 0.733391 0 0 0
-0.082643 -0.232459 0.733391 0 0 0
-0.081445 -0.232459 0.733391 0 0 0
-0.080247 -0.232459 0.733391 0 0 0
-0.079049 -0.232459 0.733391 0 0 0
-0.077851 -0.232459 0.733391 0 0 0
-0.076653 -0.232459 0.733391 0 0 0
-0.075455 -0.232459 0.733391 0 0 0
-0.074257 -0.232459 0.733391 0 0 0
-0.073059 -0.232459 0.733391 0 0 0
-0.071861 -0.232459 0.733391 0 0 0
-0.070663 -0.232459 0.733391 0 0 0
-0.069465 -0.232459 0.733391 0 0 0
-0.068266 -0.232459 0.733391 0 0 0
-0.067068 -0.232459 0.733391 0 0 0
-0.065870 -0.232459 0.733391 0 0 0
-0.064672 -0.232459 0.733391 0 0 0
-0.063474 -0.232459 0.733391 0 0 0
-0.057484 -0.232459 0.733391 0 0 0
-0.056286 -0.232459 0.733391 0 0 0
-0.055088 -0.232459 0.733391 0 0 0
-0.053890 -0.232459 0.733391 0 0 0
-0.052692 -0.232459 0.733391 0 0 0
-0.051494 -0.232459 0.733391 0 0 0
-0.050296 -0.232459 0.733391 0 0 0
-0.049098 -0.232459 0.733391 0 0 0
-0.047899 -0.232459 0.733391 0 0 0
-0.046701 -0.232459 0.733391 0 0 0
-0.041055 -0.234420 0.739579 0 0 0
-0.039513 -0.232459 0.733391 0 0 0
-0.038315 -0.232459 0.733391 0 0 0
-0.037117 -0.232459 0.733391 0 0 0
-0.035919 -0.232459 0.733391 0 0 0
-0.034721 -0.232459 0.733391 185 186 178
-0.033523 -0.232459 0.733391 184 185 177
-0.032325 -0.232459 0.733391 184 185 177
-0.031127 -0.232459 0.733391 185 186 178
-0.029929 -0.232459 0.733391 186 186 178
-0.028730 -0.232459 0.733391 186 186 178
-0.027532 -0.232459 0.733391 186 187 179
-0.026334 -0.232459 0.733391 186 187 179
-0.025136 -0.232459 0.733391 187 187 179
-0.023938 -0.232459 0.733391 187 187 179
-0.022740 -0.232459 0.733391 187 187 179
-0.021542 -0.232459 0.733391 186 187 179
-0.020344 -0.232459 0.733391 187 188 180
-0.019146 -0.232459 0.733391 187 188 180
-0.017948 -0.232459 0.733391 186 189 180
-0.016750 -0.232459 0.733391 186 189 180
-0.015552 -0.232459 0.733391 186 189 180
-0.014354 -0.232459 0.733391 186 189 180
-0.013156 -0.232459 0.733391 186 189 180
-0.011958 -0.232459 0.733391 187 190 181
-0.010760 -0.232459 0.733391 187 190 181
-0.009561 -0.232459 0.733391 186 189 180
-0.008363 -0.232459 0.733391 186 189 180
-0.007165 -0.232459 0.733391 186 187 179
-0.005967 -0.232459 0.733391 187 188 180
-0.004769 -0.232459 0.733391 186 187 179
-0.003571 -0.232459 0.733391 186 187 179
-0.002373 -0.232459 0.733391 182 183 175
-0.001175 -0.232459 0.733391 175 176 168
0.000023 -0.232459 0.733391 162 159 154
0.001221 -0.232459 0.733391 153 150 145
0.002419 -0.232459 0.733391 182 179 174
0.003617 -0.232459 0.733391 187 184 179
0.004815 -0.232459 0.733391 189 188 183
0.006013 -0.232459 0.733391 189 186 181
0.007211 -0.232459 0.733391 187 186 181
0.008409 -0.232459 0.733391 187 186 181
0.009607 -0.232459 0.733391 188 187 182
0.010806 -0.232459 0.733391 187 186 181
0.012004 -0.232459 0.733391 193 194 188
0.013202 -0.232459 0.733391 94 93 88
0.014400 -0.232459 0.733391 66 65 60
0.015598 -0.232459 0.733391 168 167 162
0.016796 -0.232459 0.733391 189 188 183
0.017994 -0.232459 0.733391 187 186 181
0.019192 -0.232459 0.733391 186 187 179
0.034767 -0.232459 0.733391 190 191 183
0.035965 -0.232459 0.733391 190 191 183
0.037163 -0.232459 0.733391 190 191 183
0.038361 -0.232459 0.733391 189 190 182
0.039559 -0.232459 0.733391 189 190 182
0.040757 -0.232459 0.733391 189 190 182
0.041955 -0.232459 0.733391 189 190 182
0.043153 -0.232459 0.733391 190 191 183
0.044351 -0.232459 0.733391 190 191 183
0.045549 -0.232459 0.733391 190 191 183
0.046747 -0.232459 0.733391 190 191 183
0.047945 -0.232459 0.733391 190 191 183
0.049144 -0.232459 0.733391 190 191 183
0.050342 -0.232459 0.733391 190 191 183
0.051540 -0.232459 0.733391 190 191 183
0.052738 -0.232459 0.733391 190 191 183
0.064718 -0.232459 0.733391 190 191 185
0.065916 -0.232459 0.733391 190 191 185
0.067114 -0.232459 0.733391 189 190 184
0.068312 -0.232459 0.733391 190 191 185
0.069511 -0.232459 0.733391 190 191 185
0.070709 -0.232459 0.733391 190 191 185
0.071907 -0.232459 0.733391 190 191 185
0.073105 -0.232459 0.733391 190 191 185
0.074303 -0.232459 0.733391 190 191 185
0.075501 -0.232459 0.733391 191 192 186
0.076699 -0.232459 0.733391 191 192 186
0.077897 -0.232459 0.733391 190 191 185
0.079095 -0.232459 0.733391 191 192 186
0.080293 -0.232459 0.733391 191 192 186
0.081491 -0.232459 0.733391 190 191 185
0.082689 -0.232459 0.733391 191 192 186
0.083887 -0.232459 0.733391 191 192 186
0.085085 -0.232459 0.733391 191 192 186
0.086283 -0.232459 0.733391 192 193 187
0.087481 -0.232459 0.733391 191 192 186
0.088680 -0.232459 0.733391 192 193 187
0.089878 -0.232459 0.733391 192 193 187
0.091076 -0.232459 0.733391 193 194 188
0.092274 -0.232459 0.733391 193 194 188
0.093472 -0.232459 0.733391 192 193 187
0.094670 -0.232459 0.733391 192 193 187
0.095868 -0.232459 0.733391 192 193 187
0.097066 -0.232459 0.733391 192 193 187
0.098264 -0.232459 0.733391 192 193 187
0.099462 -0.232459 0.733391 192 193 187
0.100660 -0.232459 0.733391 192 193 187
0.101858 -0.232459 0.733391 192 193 187
0.103056 -0.232459 0.733391 192 193 187
0.104254 -0.232459 0.733391 192 193 187
0.105452 -0.232459 0.733391 192 193 187
0.106650 -0.232459 0.733391 192 193 187
0.107849 -0.232459 0.733391 193 194 188
0.109047 -0.232459 0.733391 192 193 188
0.110245 -0.232459 0.733391 193 194 189
0.111443 -0.232459 0.733391 193 194 189
0.112641 -0.232459 0.733391 193 194 189
0.113839 -0.232459 0.733391 193 194 189
0.115037 -0.232459 0.733391 193 194 189
0.116235 -0.232459 0.733391 193 194 189
0.119791 -0.237127 0.748118 193 194 189
0.121993 -0.239047 0.754176 193 194 189
0.123225 -0.239047 0.754176 192 193 188
0.124018 -0.238203 0.751513 192 193 188
0.125182 -0.238083 0.751135 192 193 188
0.126282 -0.237843 0.750378 193 194 189
0.127508 -0.237843 0.750378 193 194 189
0.128475 -0.237365 0.748870 193 194 189
0.129050 -0.236179 0.745126 193 194 189
0.128216 -0.232459 0.733391 194 195 190
0.129414 -0.232459 0.733391 194 195 190
0.130612 -0.232459 0.733391 193 194 189
0.131810 -0.232459 0.733391 193 194 189
0.133008 -0.232459 0.733391 194 195 190
0.134206 -0.232459 0.733391 193 194 189
0.135404 -0.232459 0.733391 193 194 189
0.136602 -0.232459 0.733391 193 194 189
0.137800 -0.232459 0.733391 193 194 189
0.138998 -0.232459 0.733391 193 194 189
0.140196 -0.232459 0.733391 193 194 189
0.141394 -0.232459 0.733391 193 194 189
0.142592 -0.232459 0.733391 193 194 189
0.153404 -0.238083 0.751135 193 194 189
0.154631 -0.238083 0.751135 193 194 189
0.155780 -0.237963 0.750756 194 195 190
0.156769 -0.237604 0.749623 194 195 190
0.157440 -0.236770 0.746993 194 195 190
0.158501 -0.236533 0.746245 194 195 190
0.159560 -0.236297 0.745498 194 195 190
0.160297 -0.235590 0.743267 194 195 190
0.161511 -0.235590 0.743267 194 195 190
0.162725 -0.235590 0.743267 194 195 190
0.164021 -0.235707 0.743638 194 195 190
0.165236 -0.235707 0.743638 193 194 189
0.166451 -0.235707 0.743638 194 195 190
0.166999 -0.234770 0.740682 194 195 190
0.167875 -0.234304 0.739212 193 194 189
0.168915 -0.234072 0.738479 193 194 189
0.170122 -0.234072 0.738479 194 195 190
0.171328 -0.234072 0.738479 195 196 191
0.172534 -0.234072 0.738479 194 195 190
0.173913 -0.234304 0.739212 194 195 190
0.175121 -0.234304 0.739212 194 195 190
0.176328 -0.234304 0.739212 194 195 190
0.177536 -0.234304 0.739212 193 194 189
0.178743 -0.234304 0.739212 193 194 189
0.178534 -0.232459 0.733391 194 195 190
0.179732 -0.232459 0.733391 194 195 190
0.180930 -0.232459 0.733391 194 195 190
0.182128 -0.232459 0.733391 194 194 192
0.183326 -0.232459 0.733391 194 194 192
0.184524 -0.232459 0.733391 194 194 192
0.185723 -0.232459 0.733391 194 194 192
0.186921 -0.232459 0.733391 194 194 192
0.188119 -0.232459 0.733391 194 194 192
0.189317 -0.232459 0.733391 194 194 192
0.207288 -0.232459 0.733391 193 195 194
